-29.6127 -53.0676 -22.8773 0.0881909 -0.992623 0.0831971
-19.8471 23.7095 -26.4263 -0.805059 -0.235501 -0.544444
22.2544 -39.7475 -24.4864 -0.534027 -0.0638655 -0.843052
-20.7275 23.4169 -24.5952 -0.800568 0.0706298 -0.595065
23.2185 62.8695 -25.5623 0.87103 0.191237 -0.452478
43.8902 -53.5511 -1.41897 0.0845403 -0.991695 -0.0969184
42.4057 -53.4576 -2.6294 -0.0860771 -0.996257 0.00796552
-23.1982 34.5006 -17.8472 -0.996214 -0.0810789 -0.0313581
-46.2975 70.1665 13.4746 0.917064 0.234516 0.322483
18.384 -3.28407 -25.2306 -0.0260594 -0.50913 -0.860295
30.0208 -10.8225 -0.533447 -0.354777 -0.237106 0.904386
-32.4781 -35.5167 -14.3336 -0.534856 -0.588855 0.605952
-0.966327 5.98095 -13.2155 -0.378879 -0.923525 -0.059599
4.10418 31.3055 4.00776 0.748269 -0.0174422 0.663166
-16.8677 77.9877 15.4507 -0.848864 -0.400486 -0.345023
-17.3477 45.7283 -35.8594 -0.478736 -0.281184 -0.831714
-25.7754 59.6902 -31.9007 -0.727746 0.0875731 -0.680233
9.62013 3.48809 -5.28633 -0.777299 -0.402489 0.483538
8.66815 5.44288 -5.20389 -0.561479 -0.428424 0.70795
39.948 50.9766 13.53 -0.333643 -0.898746 -0.284497
36.7711 -7.17754 -1.65441 0.815433 0.329409 0.475982
13.2375 59.7831 -37.4079 0.559713 0.0146104 -0.828558
0.240304 89.2192 2.51111 0.115061 0.950439 -0.288837
1.33712 88.7878 1.60024 0.115516 0.988326 -0.0993411
24.4594 -53.4969 -14.6122 -0.205553 -0.965661 0.158891
7.56633 84.6469 1.67713 0.747308 0.662514 0.0510534
32.6717 62.4958 12.3362 -0.586319 0.406659 0.700613
-36.1203 -52.7457 -3.43022 0.555927 -0.653214 0.51406
-36.4609 -53.6194 -4.6568 0.265436 -0.93913 0.218127
-19.3999 79.9651 2.97226 -0.554813 0.507805 0.659028
-20.3538 79.0414 2.50317 -0.773892 0.269976 0.572891
14.9133 74.5613 2.86891 0.41413 0.0358841 0.90951
-62.406 82.0778 29.4289 -0.807676 0.509009 0.297605
-23.3144 70.7049 -0.0515606 -0.717093 -0.00165216 0.696975
7.12029 28.0032 -32.5836 0.49557 0.0119126 -0.868486
-29.4356 -52.1443 -1.369 0.485343 -0.806148 0.338479
-32.0154 -21.137 -27.561 -0.271933 0.440024 -0.855822
23.4537 -31.7865 -6.55056 -0.257403 -0.394423 0.882142
27.8753 -32.539 -7.19182 0.320275 -0.256812 0.911851
18.5536 70.3266 1.95748 0.49054 0.761994 0.422772
18.0308 69.7326 3.60972 0.508157 0.769244 0.38735
16.3408 72.1295 2.12678 0.636774 0.364183 0.679624
15.1518 72.72 3.04847 0.591037 0.392187 0.704886
22.2612 44.7849 -18.2044 0.954908 -0.093255 -0.281876
22.4864 43.7746 -16.551 0.941039 -0.324633 -0.0951742
22.0852 43.1966 -18.3287 0.907858 -0.37966 -0.177911
21.6257 44.0832 -19.8202 0.945876 -0.0267057 -0.323426
15.1995 80.0226 -19.7632 0.811513 0.574482 -0.106854
35.2758 -53.2616 -19.8408 0.340636 -0.856663 -0.387422
48.8691 76.4114 30.5621 -0.133828 0.827097 -0.545894
52.2799 65.1305 48.1831 0.0334038 -0.978175 0.205078
16.4353 66.9757 -32.0991 0.690591 0.300808 -0.657723
34.3784 56.6462 18.1552 -0.914386 -0.30871 0.261909
22.1118 -45.2559 -13.6008 -0.757097 0.217621 0.615991
-18.9746 79.7432 -28.7109 -0.639018 0.632322 -0.437977
-7.72022 71.6354 28.1043 0.0566498 0.638029 0.767926
5.58909 84.9527 26.9934 -0.0826072 -0.513358 0.854189
22.362 -19.6243 -3.72265 -0.20513 0.335817 0.91932
42.7474 -49.3085 -6.09319 0.839543 0.530782 -0.11592
2.90481 84.0382 10.8124 0.585559 0.771305 -0.249417
44.9301 81.6587 40.346 -0.893297 -0.0254125 -0.448748
11.0102 50.5784 11.9466 0.217288 0.249843 0.943591
-11.4044 61.9655 35.4903 -0.464398 0.850578 0.246681
1.24269 56.1342 35.0035 0.866906 -0.488969 0.0968695
-11.1937 56.807 34.3351 -0.650166 -0.752874 -0.102293
32.7839 49.2227 9.66775 -0.154822 -0.811379 0.563644
-56.8738 85.7118 27.6168 -0.594377 0.026253 0.803758
-65.4064 76.0986 35.9813 -0.520517 0.848192 -0.0981401
-21.1152 -53.206 -20.3215 0.238048 -0.96839 0.0745262
-1.17416 73.2997 28.1066 -0.0124659 0.445359 0.895265
-32.9023 50.2376 3.23424 0.265454 -0.310713 0.912684
23.1997 47.7343 -16.4984 0.950213 -0.20519 -0.234506
22.8617 45.6995 -16.4079 0.972951 -0.160143 -0.166493
-34.9474 45.7995 0.751549 0.191776 -0.913022 0.360019
-61.9004 72.642 7.97104 -0.404373 0.866763 -0.291898
-36.1754 44.8868 -0.857908 0.127626 -0.96609 0.224458
-34.2631 63.6474 -1.13811 -0.128802 0.887375 0.442692
-5.04353 86.512 -26.7703 -0.0448205 0.866018 -0.498
-41.8261 49.6242 -12.3441 -0.654227 -0.32349 -0.683623
-19.9322 37.4145 5.45755 -0.659181 -0.518289 0.544845
-26.5213 -35.1722 -13.6437 -0.196027 -0.587412 0.785188
-25.3239 -36.1427 -13.7626 -0.189404 -0.748026 0.636069
-9.15079 20.8729 1.60075 -0.761548 -0.0700156 0.644316
-0.350776 20.1016 2.87893 0.236465 -0.297031 0.925125
3.87914 72.0207 28.2891 0.900735 0.204117 0.383423
-7.99501 20.7616 2.53622 -0.51317 -0.0172674 0.858113
22.7009 -2.40892 -25.0843 0.237901 -0.441072 -0.865366
-3.76468 18.6342 2.61502 0.0564623 -0.387762 0.920029
-27.9678 -36.5728 -14.5127 0.181217 -0.538909 0.82264
-3.56107 15.663 2.10589 -0.0693514 -0.374583 0.924596
-4.62081 16.998 2.16787 -0.156997 -0.231676 0.960041
13.8669 62.7799 11.0465 -0.432502 -0.5961 0.676467
-62.8756 76.926 34.327 -0.523808 -0.299984 0.797267
37.6177 -52.7096 0.848379 0.656063 -0.723458 -0.214919
37.7784 -52.8956 2.12718 0.532604 -0.824253 -0.192197
36.8368 -53.3554 2.77496 0.0925532 -0.993964 -0.0589001
4.99097 86.8634 1.38361 0.675118 0.711192 0.196014
50.7866 70.7581 45.6993 -0.127829 -0.39277 0.910709
-41.0329 -53.8281 -1.77215 -0.647691 -0.717486 -0.256339
-40.7747 -53.5169 -3.03434 -0.780394 -0.549434 -0.298511
-41.109 -52.4752 -2.10152 -0.941997 0.0200991 -0.33502
-16.5603 87.5318 26.0201 0.599498 0.295345 0.743891
-6.80403 64.1954 -41.379 -0.050617 0.197274 -0.979041
-17.6175 78.6762 3.85142 -0.275087 0.124006 0.953388
-35.6896 -31.956 -17.5942 -0.954908 -0.280987 0.0959044
41.4329 64.6847 1.7514 0.63296 0.726283 -0.268096
-20.1207 77.5838 2.66368 -0.532491 -0.0272124 0.845998
-19.2347 78.8405 3.45053 -0.449012 0.0628055 0.891316
20.2101 -15.7956 -9.51498 -0.919298 0.256616 0.298394
-44.9818 51.937 9.90189 0.703538 -0.422052 0.571757
-36.5534 63.2202 -0.36758 -0.0400558 0.914034 0.403654
-7.16328 24.4629 4.03131 -0.209803 -0.251951 0.944724
19.453 40.8978 -4.27722 0.860883 -0.4795 0.170179
40.5761 55.8354 -2.63973 0.691547 -0.0830321 -0.717544
40.4734 53.7647 -2.16338 0.711172 -0.29938 -0.636086
-38.9792 -53.5073 -0.785218 0.554082 -0.707399 0.438838
-37.4859 -53.5093 -3.29283 0.356645 -0.898488 0.255977
52.1848 66.21 9.33368 0.408218 0.363039 -0.837592
-38.5252 -53.6473 -1.97708 0.411233 -0.881274 0.232901
-22.4977 40.0778 -30.0967 -0.645644 -0.31791 -0.694318
-39.9039 -53.7338 -0.0223784 0.371224 -0.728538 0.575695
-46.9316 70.0949 9.86622 0.69974 0.658066 -0.278053
-39.0394 -52.6379 -0.151456 0.577722 -0.13942 0.804238
-23.7272 -23.8857 -7.93039 0.472083 -0.147184 0.86918
-38.0281 -52.2137 -9.64643 -0.724254 -0.688309 0.0410684
30.9104 1.89397 -21.5723 0.764412 -0.0953392 -0.637639
34.7517 -16.5244 -19.4662 0.661305 0.515552 -0.544869
-38.5422 -53.0621 -7.34068 -0.443413 -0.832295 -0.33267
35.1299 47.4612 2.71765 0.263066 -0.963964 0.0396169
-35.8775 46.078 2.54624 0.213194 -0.88236 0.419511
14.6653 89.0066 21.6349 0.737905 0.000747648 -0.674905
-36.9239 45.5247 1.02389 0.126572 -0.934648 0.332284
24.4962 -36.6526 -25.395 -0.199125 0.0302983 -0.979506
45.9678 79.9553 38.8679 -0.896458 0.0224967 -0.442557
-1.21754 11.0366 0.340456 0.176007 -0.611096 0.77174
-1.98923 9.87354 -0.60587 0.126341 -0.503855 0.854499
-35.0102 -35.951 -26.2565 -0.864999 -0.0877587 -0.49404
-5.60707 87.4772 -24.5832 -0.0478381 0.923506 -0.380588
14.558 69.006 8.95178 0.653994 0.548043 0.521479
-6.79285 85.56 -27.7873 -0.153844 0.843293 -0.514965
-9.82374 10.5311 -29.1197 -0.371258 -0.383902 -0.84545
-14.4355 76.3114 -34.4503 -0.347282 0.456694 -0.81904
-16.4687 75.3331 -33.9664 -0.462804 0.413535 -0.784092
-9.50539 41.907 11.7289 0.123219 -0.202203 0.971561
-23.8028 -21.5019 -7.79482 0.599718 0.101181 0.793789
29.9508 -34.7571 -24.9766 0.329072 -0.0417126 -0.943383
-56.6021 50.6052 10.5474 -0.529783 -0.842265 0.0996023
-1.21084 50.7665 9.67867 0.355135 -0.556674 0.750995
27.8548 -34.4404 -25.4892 0.099468 -0.0241021 -0.994749
8.58924 84.0019 0.858876 0.751946 0.634094 0.180282
-2.45266 18.1776 2.1893 0.132166 -0.214302 0.967785
-2.43645 19.7216 3.09977 0.146084 -0.374808 0.915521
-21.4131 32.7225 -8.5626 -0.839611 -0.440643 0.317628
43.7805 -52.2458 2.41435 -0.621294 -0.248115 0.743258
44.1965 -50.2237 2.0952 -0.373109 0.512843 0.773163
-4.34854 6.68793 -2.96136 -0.457085 -0.722401 0.518855
-4.10991 5.70851 -4.72869 -0.448459 -0.863395 0.231157
-22.0934 34.1448 -7.37009 -0.286937 -0.845846 0.449679
-1.56119 27.9244 -34.5271 0.259685 -0.30169 -0.917359
-0.318591 10.1329 -1.03126 0.392409 -0.567393 0.723934
0.222091 11.4211 0.318591 0.359852 -0.48434 0.797447
6.69478 59.127 -39.3564 0.316036 -0.00261789 -0.948744
1.05234 10.9506 -0.662663 0.572946 -0.643028 0.50818
1.45366 12.1877 -0.221915 0.698886 -0.221805 0.679971
-15.0437 83.5612 4.4925 -0.367519 0.258853 0.893266
-15.8329 82.0726 4.37867 -0.355763 0.115276 0.92744
37.1719 -43.2754 -16.1133 0.695599 0.661464 -0.280372
-22.9411 -20.1908 -25.5409 0.506414 0.573728 -0.643724
23.2302 -43.3397 -25.1849 -0.345707 0.330261 -0.878302
44.4261 -46.9594 -12.7326 0.763884 0.620207 -0.178392
-9.70015 9.19766 -28.649 -0.473333 -0.397396 -0.78615
29.5333 66.2923 -0.507696 -0.0464454 0.998037 0.0420023
29.1066 66.3469 -2.78405 -0.0425641 0.996507 -0.0718479
1.72218 54.2703 11.5365 0.256639 -0.450804 0.854934
32.22 65.6665 -3.9263 0.29127 0.916884 -0.27292
31.162 66.2079 -1.92239 0.117228 0.990244 -0.0753307
-31.8227 60.6558 2.50711 -0.0665819 0.498644 0.864246
54.4475 61.1797 10.6256 0.773091 -0.0477132 -0.632498
34.5262 64.4691 10.2994 -0.194449 0.939981 0.280404
-29.6294 60.6334 2.84106 -0.325124 0.347299 0.87959
-53.5865 66.7132 1.70047 -0.0457502 0.555874 -0.830006
-51.691 66.4075 1.07078 0.0457122 0.550079 -0.83386
-2.17483 -3.43182 -36.5016 0.353291 -0.683229 0.639049
-15.1942 31.1049 -32.4608 -0.575232 -0.0871503 -0.813334
32.5618 -28.9809 -23.9316 0.538176 -0.016127 -0.842678
19.4717 -51.7193 -27.5343 -0.613038 -0.211583 -0.761194
18.9425 -50.4865 -26.3003 -0.852511 0.127792 -0.506847
-34.7348 -32.0195 -27.4557 -0.753676 -0.0740432 -0.653062
-41.7325 45.2807 -1.19861 -0.159166 -0.986504 0.0384152
6.68959 43.0392 -37.3979 0.308664 -0.402763 -0.86169
50.2867 58.9636 32.6252 -0.0185681 -0.912602 0.408426
-5.45481 50.9393 10.8667 -0.0358701 -0.388004 0.92096
-34.6597 59.6363 3.81018 0.366492 0.220293 0.903966
-34.4359 58.035 3.29969 0.247849 0.052617 0.967369
17.2912 74.7484 0.488797 0.630487 0.76355 0.139563
14.7098 79.6577 -16.1156 0.67065 0.740379 -0.0454766
17.5481 74.9466 -0.827138 0.489338 0.856857 0.162308
-15.895 58.0025 10.2725 -0.425314 -0.0140901 0.904936
18.8029 74.5195 -0.163666 0.437212 0.854708 0.279857
29.8124 -53.7105 -4.77587 -0.16275 -0.963712 0.211595
30.4871 -53.1862 -3.16161 -0.294827 -0.829864 0.473712
10.6009 14.1774 -28.8047 0.377295 -0.100597 -0.920613
31.4596 -53.6586 -4.00707 -0.0778096 -0.98727 0.138722
27.5526 -21.188 -24.6008 -0.209987 0.304249 -0.92916
32.3456 -53.4423 -2.73601 -0.213295 -0.936204 0.279334
-22.6938 69.1675 6.55804 -0.720433 0.662903 0.203804
33.1375 -53.2897 -1.2383 -0.348507 -0.901074 0.258087
43.3074 52.3756 3.66039 0.951935 -0.301285 0.0551989
43.2362 50.9688 3.16385 0.934271 -0.324751 0.147224
22.873 -53.5272 -16.6509 -0.234043 -0.947849 0.216349
-7.83402 37.228 -34.6569 -0.227092 -0.161007 -0.960472
-27.2737 48.9345 3.19288 -0.386226 -0.406343 0.828079
-9.71078 33.8624 5.62181 -0.436465 -0.0928217 0.89492
14.7201 37.6798 1.76335 0.700818 -0.599182 0.387085
12.3587 35.9656 3.50185 0.658384 -0.644816 0.388256
-0.378643 77.5612 -36.5956 0.150896 0.434008 -0.888182
0.940818 25.173 3.6941 0.211898 -0.268999 0.939542
2.54308 24.741 3.08716 0.55478 -0.290518 0.779627
-0.861928 25.6943 4.0918 0.145366 -0.252658 0.956573
-6.34129 23.112 3.44474 -0.142257 -0.331021 0.932839
-5.68536 21.5589 3.47686 -0.208731 -0.0319675 0.97745
-22.4767 -31.4414 -11.3524 0.374017 -0.521517 0.766897
45.0418 52.5641 9.00397 0.561881 -0.730411 -0.388317
-26.2635 -30.1336 -9.88325 0.114374 -0.591325 0.798282
-9.49278 56.0838 33.909 -0.302144 -0.952815 -0.0292006
-40.4891 -48.2887 -12.2781 -0.0848731 0.898002 0.431728
-2.92546 21.3457 3.55035 0.141906 0.0100024 0.98983
-9.99659 87.9378 1.51344 -0.273452 0.930206 -0.24483
-8.58921 88.3892 -1.09298 -0.352588 0.912806 0.206075
-8.60314 87.8939 0.639808 -0.341933 0.937134 -0.0697297
-11.0296 34.0171 5.02371 -0.185081 -0.607942 0.772109
46.0766 -53.7141 1.69452 0.137015 -0.985778 -0.0973089
-29.3104 -40.2029 -16.0561 -0.0430895 -0.406003 0.912856
41.0521 66.4023 26.6779 -0.854305 0.0617275 0.516094
-12.3485 82.2412 9.29449 -0.607176 0.771566 -0.189797
1.41533 37.544 9.63465 -0.363031 -0.655372 0.662341
44.9259 -53.6208 1.26587 -0.181061 -0.979219 0.091365
46.6422 -53.7088 2.65187 0.372467 -0.882151 0.288231
46.3424 -51.8928 3.56417 0.268344 0.249034 0.930577
45.9551 -53.1162 3.47262 -0.0767568 -0.493953 0.866094
46.9366 -52.1504 1.60191 0.959131 0.135633 -0.248339
46.9565 -53.2925 1.60707 0.812924 -0.511678 -0.278102
47.3482 -52.7469 3.0027 0.891625 -0.143346 0.429484
46.9473 -51.5754 2.62822 0.871913 0.428329 0.237281
45.6012 -53.6256 2.44871 -0.254003 -0.920505 0.296907
-36.9095 -27.5998 -16.5893 -0.954284 -0.285299 0.0891479
44.725 -53.1303 2.57439 -0.489147 -0.673225 0.554531
45.4656 -51.2159 3.2005 -0.141798 0.433512 0.889922
13.5844 54.3159 9.64221 0.10751 0.408044 0.90661
45.036 -52.2352 3.27629 -0.431818 -0.0892236 0.897537
44.3594 -51.2236 2.77769 -0.468799 0.279448 0.837936
45.2384 -50.3032 2.5354 -0.0334172 0.66477 0.746301
43.827 -53.499 0.138516 -0.203758 -0.972525 0.112596
44.9628 -53.5537 -0.251638 0.141677 -0.976071 -0.164966
22.3698 50.5823 -24.465 0.881458 -0.262461 -0.392614
-27.8856 56.2018 -28.5342 -0.910402 -0.156537 -0.382968
20.6289 43.6131 -22.6189 0.92501 -0.168044 -0.340762
-33.828 -15.3341 -19.6551 -0.67544 0.344647 -0.651919
21.7874 45.7037 -19.7935 0.941159 -0.203932 -0.269502
20.915 45.5463 -23.1965 0.884293 -0.353469 -0.305098
-19.244 39.2852 7.71697 -0.586599 -0.479541 0.652643
21.0995 44.7889 -21.2493 0.948534 -0.148908 -0.27948
-20.1818 72.896 3.33357 -0.777624 0.52895 0.339871
-19.2541 74.1804 3.24238 -0.748827 0.441698 0.494126
-20.4837 71.7037 4.81477 -0.719799 0.686475 0.103156
-57.3618 70.5737 4.84963 -0.0107502 0.667659 -0.744389
-35.1251 -11.4412 -1.45899 -0.114533 0.349756 0.929813
21.8995 58.3146 6.88244 0.220855 0.0992457 0.970244
-47.5177 66.6292 3.73143 0.677742 0.565553 -0.469911
-33.542 44.7993 -3.72736 0.0776471 -0.988756 0.127797
43.1031 61.1457 1.88287 0.925976 0.376573 0.027588
-25.3166 65.569 7.29649 -0.802586 0.323232 0.501375
43.8542 62.0602 4.84804 0.611757 0.407582 -0.677961
42.9353 63.7298 5.2801 0.458505 0.560399 -0.689729
42.3631 62.8873 3.94583 0.767771 0.554164 -0.321604
32.7594 -1.87301 -18.3084 0.796099 -0.119547 -0.593241
42.8978 61.7124 3.45658 0.825083 0.485909 -0.288323
-27.0201 46.5865 -25.933 -0.840786 -0.245281 -0.482613
45.6238 60.4227 5.76681 0.665264 0.155195 -0.7303
-12.345 1.29188 -17.7081 0.705594 -0.670071 -0.230526
-61.497 60.3406 1.29996 -0.623162 -0.163243 -0.764867
-11.0966 3.05536 -10.9961 0.313558 -0.915472 0.252175
-28.1864 54.9952 4.59766 -0.25018 -0.0492334 0.966947
-9.66971 56.5934 32.4551 -0.580601 -0.777817 -0.240632
-30.5283 53.651 4.0162 -0.138578 -0.107048 0.984549
-10.8894 88.5788 -6.01768 -0.209278 0.976473 -0.051988
30.2543 -24.3963 -3.91918 0.051268 -0.358532 0.932109
-50.6449 49.1434 3.7044 -0.508731 -0.858709 -0.0617465
-42.54 45.703 2.41954 -0.0936759 -0.959691 0.264987
-20.8089 60.7424 7.83944 -0.277645 0.293545 0.914737
19.1438 45.8778 3.44503 0.82955 -0.41162 0.37738
-20.9904 36.6099 2.88561 -0.741982 -0.541185 0.395704
0.311173 -1.72233 -53.4838 0.550379 0.790878 -0.267574
-46.7865 65.3146 3.79641 0.686809 0.605071 -0.402718
37.7361 -50.5786 4.33891 0.735616 0.670534 0.096194
42.2587 66.8904 7.82047 -0.0786439 0.68427 -0.724976
-64.4527 76.0065 34.7938 -0.0738942 0.997129 -0.0165073
-0.597022 89.2887 4.70037 0.146715 0.86297 0.483484
-3.11202 90.0081 3.99069 -0.0787122 0.986598 0.142927
-50.3011 71.441 7.24707 0.496117 0.696165 -0.518867
-3.8046 89.2738 5.30259 -0.141027 0.745641 0.651253
-10.181 88.3022 3.11294 -0.336478 0.938085 0.0823369
-8.07438 84.7314 7.40725 -0.342237 0.926726 0.15509
-2.87434 86.1911 7.87138 -0.0870686 0.982031 0.167434
-20.803 14.9747 -27.0545 -0.502295 0.109698 -0.85771
18.512 49.8574 7.16141 0.696022 -0.199764 0.689672
31.9239 46.8073 3.67579 0.239658 -0.958028 0.157307
-42.0232 48.124 6.43097 0.22887 -0.387007 0.893221
-20.7562 12.5615 -27.2773 -0.481105 0.00527163 -0.876647
-12.2763 83.6458 -27.7589 -0.330163 0.860414 -0.388177
9.21062 80.9762 4.68478 0.172887 0.170173 0.970129
12.7514 74.5444 4.13325 0.660719 0.434061 0.612407
13.8482 73.658 3.57747 0.616027 0.366148 0.697457
14.3973 72.0592 4.49905 0.618513 0.643918 0.450346
-34.7376 52.8157 -17.4649 -0.317607 -0.225787 -0.920948
-2.85082 26.6898 -34.4594 0.155864 -0.363893 -0.918307
24.3718 54.9294 -18.7206 0.972892 -0.185997 -0.137429
-0.701428 26.2041 -34.1963 0.0203453 -0.121192 -0.99242
-39.5851 -51.5619 -5.70653 -0.945547 0.130854 -0.298025
-39.2362 -51.1095 -6.95291 -0.94712 0.238884 -0.214241
14.3267 77.5827 0.235993 0.713818 0.696858 -0.0696698
15.0647 76.4697 -0.472363 0.68107 0.727686 -0.081347
18.7692 41.6212 -25.5991 0.626058 -0.747324 -0.222617
4.72113 35.0489 7.82634 -0.0816163 -0.816739 0.571205
14.4227 77.6354 -1.17038 0.789875 0.609768 -0.0654213
-29.9466 1.82627 -26.095 -0.459666 -0.170437 -0.871584
-17.0958 -6.1729 -13.8797 0.842987 -0.535535 0.0507526
41.9576 49.1065 4.22561 0.67896 -0.73011 0.0771552
41.9829 50.0704 5.4003 0.815368 -0.502785 0.287025
-37.1277 49.4112 4.50941 0.388361 -0.143001 0.910344
-40.496 49.3908 6.0187 0.356108 -0.20074 0.912628
-53.4851 52.465 2.50015 -0.562784 -0.609327 -0.558566
24.283 65.9598 -16.4423 0.981423 0.172262 -0.0844626
-52.8691 53.1712 0.53105 -0.770237 -0.433673 -0.467614
22.3051 71.0511 -19.361 0.789434 0.55128 -0.26997
9.64757 83.4216 -6.71048 0.781936 0.510992 0.357021
-11.3287 43.7258 -38.1721 -0.157315 -0.523507 -0.837372
-27.2545 74.7462 -16.2329 -0.850623 0.512961 0.115377
-11.2395 45.037 -38.779 -0.427432 -0.233455 -0.873384
55.2816 58.6523 28.2522 0.744434 -0.45304 0.490482
-10.4961 56.5374 33.2939 -0.612294 -0.717276 -0.332581
-21.1928 31.2444 -25.496 -0.826929 -0.294061 -0.479287
-20.169 31.14 -26.7895 -0.79117 -0.313354 -0.525224
4.28478 83.0511 6.58442 0.747176 0.51114 0.424811
-16.7814 34.0205 5.24292 -0.377707 -0.746681 0.547544
36.5394 -52.9967 5.74584 -0.695681 -0.505037 0.510848
37.8869 -50.9945 5.63092 0.572937 0.73388 0.364915
-15.9657 32.7087 3.26739 -0.190314 -0.910771 0.366437
39.1898 -53.1652 -14.6062 -0.102528 -0.980979 0.164825
26.9284 10.5502 -4.89812 0.497384 0.573476 0.650949
27.8471 9.41818 -4.62436 0.406662 0.678278 0.612017
39.2299 48.1527 5.24611 0.0734988 -0.990993 -0.111945
28.1074 9.97658 -5.97299 0.527059 0.6782 0.512108
-25.7518 -32.6931 -11.4324 -0.114202 -0.490804 0.863753
-26.8704 -31.6902 -11.2355 0.0694444 -0.566332 0.821247
-19.8488 -32.9624 -27.9948 0.790243 0.128019 -0.599272
-4.89614 53.0554 -40.7701 0.0226294 -0.198957 -0.979747
-5.95515 26.1717 4.3262 -0.128447 -0.255702 0.958185
-3.88617 24.0195 3.96853 0.0989311 -0.38711 0.916711
32.4953 -44.6485 -6.7052 0.0525992 0.949145 0.310415
37.449 -51.3918 -1.69044 0.839142 0.313112 0.444748
37.1658 -50.2604 -2.36943 0.513098 0.644125 0.567304
36.5432 -50.0321 -1.38577 0.788942 0.607077 0.0950178
4.91955 78.8673 23.6873 0.581973 0.147412 0.799736
13.4883 71.7048 6.55987 0.692808 0.627098 0.356042
-17.1937 77.1226 4.02229 -0.701194 0.104948 0.705204
-62.4547 58.2752 2.69488 -0.664765 -0.291861 -0.68768
2.23935 88.1939 5.63567 0.25105 0.584842 0.771319
0.685726 88.9159 5.31244 0.0728831 0.732554 0.676796
1.83737 89.2285 4.50576 0.266805 0.906781 0.32644
7.48042 32.8758 2.73311 0.304768 -0.870076 0.387407
7.54197 85.252 4.02091 0.706575 0.635947 0.310359
-29.0298 49.8771 3.4583 -0.231142 -0.390152 0.891266
-9.55526 85.4394 5.53719 -0.184755 0.295208 0.9374
-23.4762 26.6838 -16.1524 -0.993545 -0.0460032 -0.103688
-28.7238 63.8384 2.02668 -0.683202 0.412785 0.602365
-44.6322 -50.6264 -9.05064 -0.654055 0.659737 0.370078
-11.4647 2.27821 -12.4089 0.649691 -0.725237 0.22789
-43.9639 -51.2228 -8.27448 0.0242956 0.471108 0.881741
-23.8896 54.5966 7.04058 -0.484925 0.357744 0.798039
-26.787 58.3161 6.29697 -0.621464 -0.346345 0.702729
-43.551 -50.2252 -9.03947 -0.0459873 0.69009 0.722261
-45.149 -51.6278 -9.35566 -0.933027 0.327321 -0.149404
7.78853 78.7266 6.553 0.694577 0.705503 0.14081
-43.9721 -49.7235 -10.0453 -0.628745 0.7636 0.146953
-35.3049 -8.79861 -2.24503 -0.59982 -0.174911 0.780783
-36.3217 -9.27501 -3.28814 -0.756423 0.0168746 0.653865
-35.3138 -7.0485 -1.44016 -0.562965 -0.200735 0.801733
-34.3367 -9.94034 -1.80202 -0.376043 -0.0381816 0.925815
24.426 50.3509 6.19055 -0.43209 -0.444343 0.784766
26.8165 6.3282 -25.2125 0.604932 -0.005358 -0.796259
25.6938 4.59293 -25.9282 0.518236 -0.117407 -0.84714
-18.3889 -36.7817 -23.8041 0.989158 -0.131053 -0.0662645
-19.2963 53.6982 -37.0895 -0.561384 -0.166692 -0.810593
17.4534 -27.2096 -8.47041 -0.78935 -0.259596 0.55636
17.6426 -29.4671 -9.54973 -0.77486 -0.339271 0.533373
35.9038 -50.0648 4.57753 -0.346946 0.681466 0.644386
36.0786 -50.9384 5.39613 -0.559551 0.383185 0.734896
10.5036 0.663383 -24.6021 -0.48912 -0.479055 -0.728881
36.0125 -49.3849 3.58902 0.0248896 0.89561 0.444144
36.802 -49.8575 4.28993 0.3085 0.866897 0.391558
-16.9297 80.0673 3.70959 -0.326825 -0.00241292 0.945082
13.4733 49.6635 -35.8855 0.683966 -0.263779 -0.680156
-37.8588 -14.1188 -9.27769 -0.976223 0.0347672 -0.213964
38.3373 -51.625 3.54682 0.91073 0.412452 0.0213378
-59.2583 80.8636 31.9137 0.480945 0.401679 0.779324
35.8125 -53.1356 3.49401 -0.406435 -0.901152 0.150784
35.6024 -53.2646 2.13698 -0.204467 -0.969391 0.135922
-10.8082 16.8328 -0.975341 -0.211345 -0.215614 0.953333
-15.7801 29.2529 -0.952676 -0.605172 -0.467159 0.644616
-15.3293 30.9504 0.317785 -0.602267 -0.519926 0.605765
-13.1313 28.498 1.32384 -0.597517 -0.700725 0.389818
-14.3761 29.154 0.193233 -0.628131 -0.53912 0.561071
-7.74259 86.5005 5.59144 -0.304138 0.21666 0.927663
-9.01657 86.7954 5.22898 -0.181846 0.322854 0.928815
-48.6776 66.6454 2.72119 0.433397 0.5921 -0.6794
-6.60948 87.1532 5.95499 -0.243385 0.249175 0.937377
-5.18611 87.0261 6.13514 -0.151558 0.34327 0.926928
-4.0113 87.8476 6.01827 -0.135552 0.370175 0.919019
11.7085 80.1323 3.61916 0.740718 0.391837 0.545711
19.2994 -48.3778 -26.4868 -0.755801 0.282498 -0.590728
-0.408827 29.7224 6.27203 0.20338 -0.350727 0.914126
19.9841 -49.875 -27.6268 -0.554489 0.151238 -0.818333
6.5803 83.539 -27.2961 0.377437 0.819252 -0.431702
53.4727 59.3005 32.0307 0.367632 -0.911689 -0.183493
-20.3561 -52.4015 -19.6321 0.815303 -0.44679 0.36832
23.1657 60.0427 -26.2449 0.857441 0.0351658 -0.51338
-33.4903 -52.1245 0.551165 -0.880475 -0.402067 -0.25121
11.4274 65.651 -37.0738 0.479478 0.271558 -0.83448
-33.2412 -51.991 -0.444347 -0.845488 -0.455415 -0.278833
-32.9717 -51.8542 -1.49575 -0.822805 -0.514774 -0.240832
37.1637 -50.7482 0.20569 0.83247 0.513714 -0.207585
36.9976 -49.8035 1.63876 0.776 0.617541 -0.128323
-32.9242 3.53986 -23.9336 -0.663474 0.0042584 -0.748187
-40.9942 61.4 2.62867 0.0572538 0.917733 0.39305
-35.318 -15.4316 -18.0785 -0.823879 0.231304 -0.517419
-28.0356 -48.8523 -3.64918 0.757765 0.496435 0.423491
-6.18279 89.7717 -8.20112 0.000912812 0.995234 0.0975095
-22.7297 34.4145 -6.59923 -0.0782463 -0.932943 0.351418
-7.23177 18.2448 1.88542 -0.379475 -0.429257 0.819596
-6.23897 16.7103 1.70143 -0.321242 -0.286583 0.902593
-5.48228 18.5775 2.52779 -0.148786 -0.419447 0.895504
-14.4555 64.9083 -39.0614 -0.335262 0.192543 -0.92224
4.0984 85.8096 5.67084 0.406005 0.215205 0.888171
4.22869 84.2183 5.73036 0.394863 0.274879 0.876656
-55.0841 70.2283 4.49632 -0.0807359 0.62255 -0.778404
24.8724 64.8409 2.83915 -0.188848 0.853434 0.485784
-56.6377 68.831 3.54108 0.0415974 0.672656 -0.738786
-6.5456 89.7568 -15.9068 -0.00374897 0.987831 -0.155489
-20.5904 71.8679 7.93054 -0.777711 0.608098 0.15932
-16.739 77.09 5.33681 -0.907723 0.403123 0.116323
9.3898 47.8561 -37.9664 0.303286 -0.256902 -0.917616
-47.6689 67.8058 5.06721 0.631533 0.593816 -0.498547
-10.6683 86.906 5.12481 -0.232416 0.47913 0.846415
5.55942 86.8061 3.55447 0.475446 0.879189 0.0312635
-8.08253 89.6101 -14.6441 -0.196069 0.972994 -0.121816
20.8696 42.2474 -11.5474 0.761998 -0.646406 0.0389726
21.1504 42.3337 -13.4504 0.662144 -0.749016 0.0232466
-1.25118 89.881 3.47538 0.177117 0.982606 -0.0558039
22.2702 44.3201 -8.77569 0.740625 -0.661982 0.115124
-21.8326 71.654 1.43524 -0.753579 0.379325 0.536872
11.4533 -2.73577 -22.8653 -0.504086 -0.638695 -0.581348
40.1171 65.3229 5.53112 0.416707 0.905574 -0.0793105
40.5024 65.1498 4.25461 0.621552 0.783005 0.0240075
37.975 -18.8752 -9.13196 0.987053 -0.0645969 0.146814
-7.77776 0.277363 -36.7624 -0.962955 -0.256413 0.0834936
0.349082 -0.271005 -36.1979 0.734154 -0.593429 0.32994
-60.4175 54.8219 4.08161 -0.429719 -0.729958 -0.53151
37.4985 -18.6108 -7.34481 0.964475 -0.102649 0.243417
37.7123 -17.2151 -6.62142 0.915095 -0.0589975 0.398899
-40.2023 58.3286 5.99584 0.426264 0.107514 0.898187
-57.0712 85.304 28.7272 0.582542 0.692577 -0.42542
-27.1977 -33.4808 -12.4573 -0.00486879 -0.608979 0.793172
-32.4316 57.2754 3.59168 -0.055771 0.180172 0.982053
-33.8247 54.0073 4.35951 0.31413 0.0936678 0.944748
-52.9089 69.9377 3.84938 0.113974 0.676086 -0.727955
-62.0974 67.9478 1.83685 -0.455304 0.414822 -0.787795
16.2436 73.7949 2.26629 0.509583 -0.0215637 0.860151
-15.0546 84.9758 2.7483 -0.611086 0.789663 0.0548235
-34.1728 56.0121 3.90245 0.201298 0.258074 0.944922
-39.2044 2.04092 -11.1545 -0.973195 0.219969 0.0671187
37.9716 -47.3487 -4.13317 -0.164341 0.532298 0.830452
-21.6071 31.3253 -11.3128 -0.889111 -0.282176 0.360359
14.5759 77.7549 1.75916 0.58233 0.793945 0.174765
13.4144 78.3956 0.977912 0.637555 0.756954 0.143331
15.5776 76.9225 0.81186 0.66655 0.725397 -0.171785
-18.9047 35.1378 4.48979 -0.625871 -0.59889 0.499617
-26.1455 49.5572 4.32697 -0.725851 -0.235936 0.646123
19.0811 -46.9711 -25.0563 -0.815531 0.483636 -0.317814
25.26 48.075 5.00677 -0.400608 -0.798538 0.449277
21.1881 54.9597 7.02432 0.144601 -0.117544 0.982484
21.0593 56.8601 7.22398 0.316962 -0.0244436 0.948123
-35.399 50.1001 4.1178 0.35057 -0.277429 0.894502
20.3285 67.8338 4.52338 0.697714 0.534574 0.476892
21.793 52.8063 6.5697 -0.0938753 -0.294007 0.951182
23.5957 52.2275 7.01588 -0.380889 -0.38665 0.839896
22.2129 50.623 5.68484 -0.0489355 -0.480231 0.875776
-17.9307 -52.525 -25.0123 0.829377 -0.50485 0.239291
11.933 75.6737 4.16269 0.616596 0.427508 0.661095
19.8722 47.8201 4.23137 0.615586 -0.595297 0.516407
-14.9946 68.7859 -37.3455 -0.322311 0.265884 -0.908527
-16.327 68.0407 -37.7248 -0.247857 0.454402 -0.85562
-13.931 69.8099 -37.9393 -0.356641 0.0669649 -0.931839
-2.79587 86.8973 6.49257 -0.119969 0.583075 0.803511
-0.392124 86.0994 7.73661 0.306439 0.940785 0.144981
-1.66114 86.2977 7.26717 0.0854151 0.927065 0.365041
16.4007 36.3559 -7.03236 0.762505 -0.636177 0.117747
45.9449 -49.8996 0.514908 0.842224 0.520359 -0.141012
6.83473 86.1936 3.17445 0.574559 0.812217 -0.10092
-2.7269 34.2858 -34.9489 -0.277322 0.00665832 -0.960754
-36.3385 -10.3537 -14.1485 -0.822053 -0.3245 -0.467898
-14.7744 32.0616 1.81178 -0.449071 -0.71019 0.542186
14.362 36.1633 0.125735 0.503577 -0.752792 0.423929
15.8341 90.878 23.0172 0.9069 -0.183351 -0.37936
-15.0271 79.4877 5.81077 -0.744892 0.626864 0.228423
7.05124 79.8797 6.66805 0.796689 0.582508 0.161155
-33.3583 -41.1618 -20.1888 -0.849139 -0.377783 0.369111
19.3876 21.7905 -15.3805 0.710505 0.702659 0.0381223
-24.3352 -40.5399 -17.1474 0.247573 -0.410605 0.87756
-22.4296 75.1354 1.65757 -0.52656 -0.0180686 0.849946
0.808655 56.4081 36.0123 0.665416 -0.674158 0.32052
-62.8044 65.1158 24.1646 -0.5061 -0.707518 0.493236
-17.8663 76.1749 3.46398 -0.643932 0.178298 0.744017
-20.2334 73.8579 2.26856 -0.612292 0.112262 0.782621
30.156 65.701 5.06806 -0.21948 0.946286 0.237425
43.4559 60.7708 0.548631 0.955569 0.293383 -0.0285484
43.7679 59.655 -0.146498 0.893479 0.290981 -0.342089
43.5479 59.7276 1.35305 0.968782 0.239444 0.0642554
12.2244 78.6045 3.69293 0.643784 0.0980175 0.758904
12.4839 79.4541 2.81024 0.859707 0.456577 0.229002
21.8447 -46.5929 -26.9004 -0.262678 0.528635 -0.807184
-34.6105 62.2346 1.06975 0.060526 0.812638 0.579618
-32.5197 52.6537 3.85313 0.194119 -0.158536 0.968083
-21.3882 0.42637 -26.1792 0.239214 -0.311835 -0.91953
-44.6255 47.4136 5.59359 -0.268353 -0.842257 0.467536
40.5244 -53.0854 -3.27113 -0.26416 -0.941922 0.207371
42.4755 -53.2995 -0.90156 -0.317255 -0.928593 0.192519
41.709 -52.4371 0.028578 -0.607197 -0.606215 0.513629
-55.8238 67.2548 1.98174 0.101682 0.671859 -0.733667
40.673 -51.6807 -0.475371 -0.695526 -0.27485 0.663853
13.2615 78.1755 2.64568 0.628182 0.595667 0.500567
41.7483 -51.2805 0.751952 -0.692925 -0.0338786 0.720213
42.801 -53.0309 0.531649 -0.488246 -0.795244 0.359447
43.727 -53.1254 1.54554 -0.473328 -0.773764 0.42101
-18.5536 80.9715 2.41509 -0.721272 0.634157 0.278588
-42.1654 46.3114 4.15315 -0.00304196 -0.930047 0.367427
-43.1603 46.919 5.71496 -0.0771282 -0.807796 0.584394
4.97826 38.0419 -33.7695 0.46908 -0.162104 -0.868151
1.04585 66.3167 29.6452 0.411776 -0.284361 0.865782
-8.46154 22.0266 2.11171 -0.561148 -0.29433 0.773617
1.05111 23.3724 2.81842 0.25348 -0.326235 0.910669
-11.2687 26.5602 1.29227 -0.85034 -0.228882 0.473851
4.71343 36.5832 -34.3631 0.426903 0.358693 -0.830116
45.817 59.5396 30.1958 -0.638283 -0.416839 0.647178
-19.4379 -21.8508 -12.1591 0.7724 0.387178 0.50348
-48.2316 48.03 2.7952 -0.407246 -0.912495 0.0387848
-27.1007 50.8752 4.15347 -0.410859 -0.269934 0.870822
42.8408 70.8248 29.3633 -0.307656 0.541485 0.782395
-10.4442 25.6245 2.63701 -0.737051 -0.147323 0.659585
-8.47961 32.6439 6.41167 -0.394094 -0.0309203 0.91855
-2.41561 33.3386 7.10729 0.172139 -0.0550958 0.983531
36.607 -51.8865 6.02439 -0.622223 0.0958796 0.776946
37.0105 -50.9888 5.95563 -0.179382 0.618805 0.764789
35.1544 -50.9926 4.43338 -0.748823 0.160036 0.643158
-21.5659 76.5362 1.92686 -0.576573 0.249485 0.778024
-16.0927 65.8945 -38.64 -0.267188 0.257183 -0.928691
-47.6292 64.6195 1.15066 0.236851 0.788392 -0.56775
-48.8877 65.4921 1.86558 0.317039 0.618241 -0.719212
-47.5135 65.6235 2.44252 0.548154 0.649321 -0.527171
-47.8762 63.5783 -0.145777 0.0129827 0.873535 -0.486589
-46.5973 64.4916 2.23772 0.623427 0.712109 -0.322861
13.191 90.3119 23.2172 0.0391581 -0.588072 0.80786
14.7977 90.6653 23.5247 0.000261795 -0.54951 0.835487
-36.8761 47.9002 4.58138 0.409602 -0.163988 0.897404
-40.5387 47.6987 5.8602 0.244385 -0.423821 0.872153
-39.263 48.2851 5.53898 0.324081 -0.108774 0.939755
14.7594 64.7622 -34.479 0.637784 0.282955 -0.716357
-37.9605 48.2892 4.963 0.423331 -0.0637355 0.903731
9.61665 77.0867 7.33397 0.825424 0.540521 0.162825
10.8792 76.5168 4.67318 0.699704 0.413587 0.582546
-16.2866 77.5404 8.22378 -0.880118 0.474659 -0.00952788
6.75287 85.5375 1.95783 0.591074 0.795758 -0.131908
34.3119 -53.7324 -2.60326 -0.0280633 -0.995446 0.0911039
-16.718 77.4064 6.86026 -0.900042 0.431213 0.0630808
-20.0325 -36.6505 -17.0708 0.728206 -0.474257 0.49477
-2.72963 60.4083 -41.626 -0.0746616 -0.106036 -0.991555
27.9097 -50.3924 -26.9853 0.458 0.00590614 -0.888933
-37.7386 -48.1274 -12.04 -0.443179 0.645824 0.621694
28.0759 -50.0541 -5.06498 -0.894632 0.141501 0.423805
27.1672 -51.7401 -6.52909 -0.929532 -0.0452426 0.365956
27.739 -51.1834 -5.51992 -0.901503 0.0296934 0.431752
20.4884 66.05 5.79944 0.768669 0.392052 0.505414
41.2907 65.658 6.65395 0.0269543 0.820377 -0.571187
-53.9105 55.6638 0.337908 -0.588805 -0.310647 -0.746195
-23.6232 71.8034 0.0434163 -0.403688 -0.348972 0.845727
38.7754 65.7517 7.27629 0.0642676 0.987078 -0.14679
39.798 65.5689 6.63418 0.11878 0.972165 -0.201955
41.4132 64.0046 4.16253 0.740265 0.655326 -0.150185
43.5403 65.3838 6.73375 0.205427 0.57465 -0.792198
18.7914 40.8663 -18.5073 0.702057 -0.697117 -0.145409
-12.5041 77.117 -35.1002 -0.395653 0.374484 -0.838582
19.713 70.2788 0.945732 0.523347 0.644245 0.557724
-5.8818 59.9957 46.0059 -0.0663185 -0.115147 0.991132
10.2071 81.6704 1.3937 0.74707 0.642094 -0.172054
45.1974 65.0866 31.9066 -0.75299 -0.149324 0.640865
12.1917 79.7477 0.403375 0.666665 0.73318 0.13418
11.0315 81.5279 2.21419 0.718852 0.646988 -0.254279
14.9822 27.4849 -9.72801 0.57149 0.0519686 0.818962
15.4044 30.3057 -11.2032 0.979127 0.0247783 0.201732
-28.0283 -44.7181 -9.80427 0.0186596 0.980142 0.19742
14.6185 34.9387 -21.769 0.95747 0.0767352 -0.278141
15.2771 33.6037 -20.7415 0.954868 0.264201 -0.135737
-43.7686 61.4577 5.98767 0.857263 0.507524 0.0867156
-44.1114 63.1495 5.65227 0.93821 0.329013 -0.1073
9.56231 31.5111 -0.890519 0.632873 -0.473719 0.612423
-36.7358 57.2386 -16.7721 -0.378373 0.190272 -0.905887
-44.6392 63.3341 4.01783 0.785177 0.577953 -0.222412
-43.8356 62.0458 4.47077 0.759615 0.637702 0.127752
-43.8889 62.5312 2.52489 0.513839 0.857354 0.0302427
-24.021 52.5036 7.48789 -0.670717 0.136656 0.729016
22.7186 -13.243 -17.9254 -0.547519 0.0962472 -0.83124
-56.2955 62.7532 25.3685 -0.14165 0.0115798 0.989849
-13.4237 86.6319 -0.590479 -0.627855 0.750902 0.204802
-13.5544 33.7985 5.63429 0.108646 -0.873036 0.475399
23.5764 15.0141 -8.68743 0.368139 0.804729 0.46571
21.7826 15.9672 -8.91062 0.369279 0.820086 0.437141
-45.8931 48.209 6.6699 -0.0693564 -0.885109 0.460187
-9.43296 56.0122 33.1069 -0.342008 -0.922064 -0.181184
-14.9508 34.7612 7.01306 -0.196065 -0.734074 0.65015
-5.35301 13.9271 0.807868 -0.296749 -0.253045 0.92082
-25.1558 1.58713 -26.9542 -0.0600066 -0.235226 -0.970087
-9.48835 19.5873 0.671259 -0.748055 -0.239992 0.618722
2.58406 21.0763 1.0683 0.785264 -0.132499 0.604818
-10.5578 25.1331 -34.0333 -0.144719 -0.119475 -0.982233
34.9122 -52.2351 3.91283 -0.758127 -0.418128 0.500412
-7.0568 53.8705 30.2353 -0.688066 -0.628038 0.363501
38.4157 -51.691 4.82184 0.913892 0.405578 -0.0175451
-6.67373 77.3409 -36.6486 -0.151369 0.425641 -0.892142
-7.3423 75.4841 -37.4256 -0.16294 0.536462 -0.828045
-11.55 74.4653 -36.8183 -0.283341 0.582082 -0.762167
-10.4405 73.2748 -38.2394 -0.353247 0.40326 -0.844155
37.2338 -10.5293 -1.91792 0.885309 -0.0559523 0.461625
36.5674 -9.21101 -0.930142 0.740537 0.0706554 0.66829
36.1493 65.5135 0.325748 0.222129 0.923768 -0.311948
37.4338 -8.76855 -2.69877 0.978154 0.14296 0.150923
-45.3364 65.8589 6.11721 0.78509 0.472722 -0.40021
-31.2979 45.6896 -11.5044 -0.4278 -0.823259 -0.373139
-10.0978 88.3617 -2.27886 -0.244453 0.959886 0.137341
15.5455 91.4572 24.0691 0.189418 -0.572121 0.797996
20.9867 -50.0772 -16.6355 -0.832719 -0.0781503 0.548153
-16.385 69.7103 -36.642 -0.435403 0.218236 -0.873383
16.4534 -29.8806 -11.5219 -0.878172 -0.315673 0.359394
-18.5052 36.2453 -28.781 -0.695656 0.165317 -0.699094
-5.5083 7.23077 -35.9275 -0.42088 0.587941 -0.690786
15.2633 37.1763 -21.5996 0.863684 -0.400445 -0.306096
1.77675 87.2901 -23.3084 0.189908 0.900933 -0.390197
-56.1106 51.4368 6.25634 -0.438642 -0.865762 -0.240933
38.8529 50.4203 -1.2249 0.601237 -0.689194 -0.404383
-32.8835 -13.4439 -20.2519 -0.626996 0.115104 -0.770472
-19.5007 58.8058 -37.7913 -0.546134 -0.103015 -0.831339
-17.772 58.1587 -38.661 -0.408698 -0.211847 -0.887743
-23.2076 -53.0584 -13.3159 0.743801 -0.64321 0.181772
-18.9432 57.0568 -37.5046 -0.52873 -0.163721 -0.832851
2.05284 89.361 -4.00661 0.258405 0.965678 0.0263096
-9.2868 88.5762 -6.30215 -0.290792 0.956306 0.0303237
-8.47053 35.9443 6.38172 0.00314942 -0.540872 0.841099
11.2075 91.5624 28.4925 0.402975 -0.426285 0.809872
9.0898 90.1589 28.3295 -0.100759 0.01118 0.994848
-9.50066 35.8428 7.0403 0.334249 -0.826973 0.452098
-17.2864 36.2633 7.12163 -0.482426 -0.56625 0.668301
24.1201 12.4176 -25.5651 0.424365 0.437509 -0.79278
-4.62591 31.9285 7.05856 -0.0364551 -0.158365 0.986707
34.0707 -49.5405 2.36652 -0.665754 0.521887 0.533297
-28.5353 42.1236 -11.8713 -0.787692 -0.612792 0.0634543
-37.7758 55.2134 -16.4424 -0.454629 0.0049935 -0.890667
-26.4118 18.1264 -16.763 -0.759041 0.558932 -0.333845
-18.5339 -45.5508 -26.795 0.891105 0.453738 -0.00729656
9.95137 95.6675 25.8016 -0.508747 0.779895 0.364611
4.07374 88.5902 -3.46557 0.520196 0.853917 -0.0148842
3.75365 88.6008 -0.692774 0.45316 0.883916 0.115489
14.4022 88.777 22.5492 0.0660441 -0.503003 0.861757
31.8909 2.74946 -2.75015 0.587469 0.38203 0.713395
37.4181 -51.7054 -1.12905 0.973304 0.223696 0.0513734
9.93625 77.2855 5.6058 0.722227 0.560262 0.40558
10.7987 77.9613 4.33664 0.498834 0.133139 0.85641
9.91288 79.4661 4.68971 0.236799 0.0405044 0.970714
-42.4365 62.4058 -1.08318 -0.0110062 0.987433 0.157652
24.3432 66.1567 -4.10971 0.277963 0.955183 -0.101795
11.2036 79.3997 4.28985 0.472975 0.0839351 0.877069
42.9116 68.2945 9.1382 -0.0455002 0.779411 -0.624858
-43.3537 60.8095 7.30996 0.919783 0.384822 0.0768891
-12.5471 87.8213 -6.12151 -0.520611 0.850342 -0.0767044
-60.9193 81.3182 31.7129 0.233953 0.931158 0.279662
-13.0551 86.9127 -7.52584 -0.534914 0.843592 0.047123
-40.7888 -50.7839 -2.49591 -0.921656 0.329815 -0.204382
-11.8649 87.9023 -7.52286 -0.481715 0.869108 0.11226
-23.0594 25.8858 -17.7782 -0.963152 0.16468 -0.212648
-22.5167 25.9223 -19.7976 -0.950333 0.194499 -0.242978
-19.6028 63.4217 7.26206 0.0275387 -0.0667888 0.997387
-48.2134 70.3195 7.85577 0.596915 0.694792 -0.401195
-47.5482 68.8023 6.60048 0.613782 0.646515 -0.453089
-22.0183 62.6414 8.04674 0.437302 -0.430021 0.789842
-22.5439 63.6463 9.00994 0.29239 -0.505169 0.811981
43.7418 53.0557 2.58312 0.961812 -0.180276 0.205958
44.1139 55.7154 1.63145 0.999209 -0.0245494 0.0312834
44.1518 57.3001 -0.148216 0.947845 0.0353974 -0.316761
-42.4858 60.2814 6.25322 0.547235 0.709309 0.444314
-39.7094 59.6115 5.49852 0.288349 0.538641 0.791657
-15.2425 8.96339 -2.73821 0.006603 -0.340602 0.940185
-17.2695 10.6323 -2.53905 -0.127103 -0.17385 0.976535
-17.6762 64.185 -38.219 -0.465288 0.167317 -0.869202
-15.4021 70.6402 -37.3218 -0.454557 0.0815791 -0.886974
26.8695 -52.4666 -7.53374 -0.901582 -0.238751 0.36076
-38.1699 -22.2635 -20.7374 -0.983119 0.114963 -0.142336
26.1729 -51.9529 -8.83127 -0.86186 -0.114729 0.493999
0.989246 73.4562 27.728 0.237321 0.725867 0.645598
25.3095 -51.6971 -10.4261 -0.851397 -0.204576 0.482983
-35.7594 44.7725 -2.88395 0.0790495 -0.989195 0.12347
14.9079 42.6387 8.4929 0.635178 -0.454514 0.624473
-12.9041 41.9154 -36.567 -0.194491 -0.548001 -0.813553
-14.1531 40.8474 -35.4955 -0.193197 -0.560042 -0.805623
34.3747 64.859 -3.6655 0.439149 0.843548 -0.309153
-14.7276 42.6492 -35.9573 -0.338474 -0.315426 -0.886534
-13.4094 43.7052 -36.8097 -0.461349 -0.296514 -0.836204
-31.4133 -46.7764 -27.8734 -0.742319 -0.0310126 -0.669329
-35.8195 -21.0183 -24.7686 -0.719417 0.398975 -0.568558
-0.605525 37.8872 8.56866 -0.523815 -0.684204 0.507428
-19.9668 -47.1223 -32.8786 0.517619 0.504366 -0.691148
-1.43736 35.5813 6.85375 0.355865 -0.0103363 0.93448
0.0904098 36.8061 6.77148 -0.344095 -0.767909 0.540291
-1.88068 37.0779 7.07004 0.250151 -0.288721 0.924156
-0.826943 36.7673 6.58418 0.191784 -0.44532 0.874591
-0.719546 37.4166 7.28471 -0.298849 -0.771184 0.562107
25.0081 59.1106 -15.8172 0.884591 0.147877 -0.442301
-29.1988 71.4712 -15.5328 -0.851026 0.516194 -0.0964286
-28.7314 71.8197 -13.0818 -0.749887 0.654518 0.0963122
18.4925 -0.947117 -26.2109 0.0613177 -0.414369 -0.908041
-18.2246 75.3702 8.24706 -0.778989 0.626915 0.0124174
-15.3534 72.6187 21.2682 -0.84339 0.228834 0.486136
2.11167 11.9901 -1.48709 0.66837 -0.440902 0.599072
-17.071 76.4602 8.94427 -0.802493 0.58577 -0.11348
-52.4077 72.7959 7.06843 0.29585 0.747362 -0.594914
-57.4124 56.2651 1.47176 -0.254075 -0.566736 -0.783745
17.8486 38.9054 -3.10327 0.770592 -0.606224 0.196672
2.80781 22.878 1.06507 0.776741 -0.29971 0.553938
3.2999 24.5126 1.6561 0.839711 -0.295041 0.45589
22.3369 1.51285 -26.452 0.298411 -0.288698 -0.909728
40.4866 -48.2388 -1.6292 -0.552501 0.487448 0.67612
-23.4969 -49.6306 -11.3287 0.948531 0.204687 0.241644
-27.065 69.1768 -26.2426 -0.661022 0.180597 -0.728309
33.9311 -48.2335 0.221614 -0.214077 0.872012 0.440189
17.4885 60.0188 10.2906 0.414287 -0.220153 0.883119
-21.6005 76.9998 -0.322026 -0.695199 0.707807 -0.125328
-22.2339 65.8258 10.2606 -0.309724 -0.328461 0.892291
-23.068 64.7272 9.64552 -0.255551 -0.276388 0.926446
1.92141 73.1457 28.4801 0.121959 0.94385 0.307038
-65.302 58.3094 7.05211 -0.850072 -0.48748 -0.19935
-67.3614 62.9253 7.68675 -0.95508 -0.080945 -0.28508
32.5514 -46.9963 -1.63917 -0.122422 0.732697 0.669453
32.8073 -48.3467 -0.607622 -0.394764 0.589434 0.70479
20.2634 -17.251 -6.51237 -0.707093 0.493989 0.505958
27.8913 -10.6229 -1.27085 -0.298781 -0.228357 0.926598
-3.63215 -5.78955 -46.6873 -0.38308 -0.923712 -0.00237792
-0.402457 54.9779 31.1879 0.972224 -0.224705 -0.0654914
-35.9607 -5.36305 -1.688 -0.655079 0.0389594 0.754555
1.33576 74.7862 -37.2138 0.234153 0.483783 -0.843283
-0.12639 73.9014 -38.4539 0.262392 0.406611 -0.87511
-0.483273 75.7761 -37.4987 0.211319 0.47017 -0.856904
-21.0781 50.2152 -35.0236 -0.540347 -0.200055 -0.817315
19.4867 4.90974 -0.778236 -0.115493 0.0978246 0.98848
-45.6459 50.2665 9.33081 0.408029 -0.634007 0.656923
17.8548 -11.5446 -15.5455 -0.378679 -0.915911 -0.133076
19.0365 -11.8472 -15.5567 -0.515708 -0.823256 -0.237265
-12.312 44.4862 -37.9676 -0.519874 -0.224489 -0.824218
-3.93057 90.1189 -10.7445 -0.183851 0.979758 0.0792018
-13.8426 52.3982 -39.5149 -0.372356 -0.198034 -0.906716
-59.502 70.8582 5.10343 0.10768 0.781543 -0.614488
-60.4487 72.0695 6.69204 -0.0270286 0.833402 -0.552006
-27.6343 58.7659 4.77205 -0.793634 0.0210337 0.608032
-28.7953 62.0567 2.74016 -0.626876 0.263995 0.73303
-27.8816 63.2332 3.90003 -0.865762 0.180122 0.466918
26.7172 -22.6628 -3.73469 -0.0329628 -0.255983 0.966119
5.14126 33.8948 5.92498 -0.151271 -0.8982 0.41274
-31.7391 5.50654 -2.46017 -0.486671 0.424251 0.76365
-3.60675 86.117 9.78613 -0.151823 0.987661 0.0384083
-1.55297 86.3479 9.26258 0.0706857 0.996966 0.0325982
-40.0999 -52.1088 -4.74397 -0.909167 0.109995 -0.401642
2.2252 84.6694 7.50507 0.551612 0.767754 0.326002
4.24746 82.4734 8.03586 0.782989 0.615203 0.0919484
12.2765 73.1935 7.27738 0.826833 0.508848 0.239629
-44.6068 64.637 7.12002 0.918938 0.335965 -0.206595
-44.2725 65.3714 8.96209 0.887932 0.361322 -0.284644
-11.5365 32.1147 4.47175 -0.615987 0.0191044 0.787525
7.99889 86.6363 -16.6859 0.439389 0.865308 -0.241204
10.1163 75.784 8.34516 0.787464 0.600167 0.140356
-12.6187 32.427 3.49576 -0.46491 -0.299958 0.832997
-6.08974 89.3675 -17.4539 -0.0548327 0.971369 -0.231162
24.1811 9.33257 -2.45236 0.355496 0.522732 0.774838
-20.3129 65.1799 8.89416 0.42042 -0.686634 0.593111
-23.2319 61.6361 -33.7426 -0.796231 0.0966902 -0.597217
20.2414 8.47634 -1.27534 -0.0526568 0.349765 0.935357
-36.9018 -11.4664 -12.5678 -0.918073 -0.122632 -0.376965
-21.7155 -52.5985 -16.807 0.844559 -0.373552 0.383639
39.8327 -45.5297 -9.10082 0.549552 0.750603 0.366863
-15.521 59.4515 10.1096 -0.382616 0.276858 0.881451
-14.8739 61.345 10.1848 -0.72409 -0.310564 0.615828
-18.08 57.4035 8.55516 -0.293626 -0.381618 0.876442
-19.0276 56.313 8.36073 -0.198124 0.196674 0.960243
17.5704 56.5521 9.56191 0.150658 -0.269185 0.951231
36.4082 -47.7279 -19.5437 0.656603 0.086704 -0.749236
22.9117 69.1594 -3.72656 0.901508 -0.030341 0.431698
22.1031 71.9114 -3.76254 0.638067 0.737625 0.22086
17.6886 58.2511 9.87957 0.318999 -0.197072 0.92704
-21.1464 78.2209 -2.74402 -0.749573 0.659274 -0.0591419
28.0592 -24.7764 -25.159 -0.0205397 0.118055 -0.992795
35.2747 -0.0366024 -6.2105 0.908594 0.211541 0.360148
16.0917 51.8972 9.96449 0.591946 0.142986 0.793193
32.7264 -19.1341 -2.83658 0.506481 -0.262275 0.821394
17.518 51.9222 8.53589 0.668979 -0.0396969 0.74222
-52.6092 49.5674 8.36622 -0.105598 -0.963465 -0.246138
13.3345 88.828 22.3311 -0.0973601 -0.468748 0.87795
29.815 12.1371 -19.6906 0.77773 0.570462 -0.264024
29.4937 13.4777 -15.5077 0.736629 0.671296 0.0820956
-29.7394 56.3319 -25.1467 -0.987176 -0.157588 -0.0255054
22.3734 52.6737 -25.6122 0.839467 -0.205856 -0.50291
26.1129 -47.5498 -27.3228 0.225145 0.254677 -0.940452
-5.56091 85.636 9.65011 -0.386286 0.920738 0.055003
-10.3992 83.2399 9.17779 -0.543655 0.838014 -0.0466053
-9.76812 84.1 7.73355 -0.527051 0.848124 0.0538876
-31.9228 -43.084 -26.956 -0.80333 -0.295491 -0.517055
-38.3625 -52.1414 -9.07853 -0.665269 -0.626915 -0.405457
-26.2344 61.2772 7.47288 -0.734072 0.0445045 0.677612
-37.6845 -52.7287 -8.91494 -0.498907 -0.777066 -0.383745
-38.2574 -52.0342 -10.1749 -0.776909 -0.314872 0.545223
7.45878 79.009 7.95599 0.735682 0.675741 0.046322
-16.9759 76.8767 10.5953 -0.872161 0.483848 0.0722901
-16.5011 77.7887 9.56298 -0.838526 0.536012 -0.0978053
0.140165 86.7883 -24.9376 0.184628 0.868146 -0.460689
-4.38511 27.9392 5.1851 0.00499683 -0.554329 0.832283
-22.9123 8.03472 -27.3896 0.0849957 0.232021 -0.96899
-24.667 96.1915 24.548 0.0256952 0.865437 0.500359
-24.4272 67.619 6.8804 -0.74454 0.582747 0.325678
33.5725 66.0328 5.85831 -0.132667 0.985589 0.104947
18.3599 -40.045 -17.8923 -0.908126 -0.401859 0.11754
18.5279 -40.5773 -19.2806 -0.898802 -0.4081 -0.16003
-31.2649 44.7302 -4.9971 -0.152431 -0.98235 0.108411
21.2963 60.0046 6.88637 0.48406 0.100925 0.869195
36.9722 62.4065 -4.0237 0.703202 0.505041 -0.50044
20.9336 61.9989 6.92764 0.717136 0.163126 0.677574
-25.1175 94.7185 24.8165 -0.59327 -0.687871 0.418167
-11.7196 52.2164 -39.9348 -0.267036 -0.190286 -0.944713
-18.7489 -34.5782 -17.4518 0.84606 -0.371408 0.382411
-19.3384 53.4531 9.6314 -0.318681 0.303329 0.898017
-37.4399 -28.6577 -22.8514 -0.961729 -0.108105 -0.251774
-21.449 71.0115 6.47532 -0.747627 0.659417 0.078885
-0.757937 54.4381 32.0209 0.515275 -0.675089 0.527965
-0.674666 38.0568 -35.6718 0.025153 -0.188506 -0.98175
38.2012 -46.1297 -4.96179 0.0579055 0.754129 0.654169
2.22278 37.3908 -35.0774 0.323685 0.158982 -0.932713
-44.5519 -50.6884 -10.3675 -0.883727 0.365438 -0.292374
0.728601 5.24983 -12.2511 -0.427497 -0.878148 0.214716
-45.2564 -52.791 -9.58484 -0.917342 -0.0283278 -0.397092
-2.49654 24.8289 -33.7874 -0.00457471 -0.110909 -0.99382
-27.9384 -12.5652 -2.11105 0.258388 -0.288132 0.922071
-9.99971 66 29.6488 -0.790497 -0.057212 0.609788
-0.106616 24.1881 -34.1074 -0.00418253 -0.0719722 -0.997398
-39.9783 -2.20483 -10.4486 -0.997664 0.0680381 0.00617562
12.3411 5.89219 -2.91516 -0.354011 -0.00707904 0.935215
-39.8037 -4.34831 -11.2357 -0.991086 -0.0537643 -0.121895
2.01171 64.1748 29.9247 0.588183 0.70988 0.387442
-38.4656 -51.6959 -9.57489 -0.950517 -0.207925 -0.230836
4.65364 32.4183 3.30539 0.532063 -0.361915 0.765458
18.6767 16.4487 -7.1426 0.61655 0.486077 0.619351
3.00038 31.901 4.95974 0.589831 0.102888 0.800945
5.00937 33.3462 4.18968 0.000242956 -0.852033 0.523488
-53.9279 50.7343 5.09052 -0.273789 -0.890493 -0.363403
-52.7386 50.8134 3.62513 -0.561472 -0.753412 -0.342226
-54.8705 50.624 6.04437 -0.362196 -0.906106 -0.218598
-58.2309 72.1269 6.56644 -0.118607 0.722273 -0.681362
-51.4459 59.5347 -1.72045 -0.568912 0.292916 -0.768466
-42.3659 50.1739 7.07597 0.395996 -0.303692 0.866578
-48.5112 60.9023 -5.30172 -0.410364 0.678944 -0.608799
21.0875 55.0973 -27.1714 0.724671 -0.0400159 -0.687932
-56.0713 85.2396 30.9225 0.968157 -0.0479565 -0.245709
24.297 65.3407 -9.67408 0.923439 0.364762 -0.119204
-46.0821 67.3661 6.42203 0.688204 0.544163 -0.479857
-46.3064 68.6527 8.06709 0.716724 0.623894 -0.311551
-26.1289 -36.667 -14.7634 -0.0726595 -0.5997 0.79692
-24.5339 -36.8498 -14.6475 -0.0425862 -0.641776 0.765709
-25.3901 17.3765 -20.1753 -0.836604 0.401369 -0.372823
17.6264 68.0751 7.01289 0.60597 0.553238 0.571601
25.7273 -20.2684 -2.96622 -0.0308954 -0.116752 0.99268
-22.9812 34.1421 -7.29395 -0.252341 -0.912214 0.322784
-26.0928 71.6235 -25.7086 -0.799517 0.347107 -0.490193
31.2249 6.00131 -4.73514 0.684519 0.520296 0.510612
19.5413 67.1014 -27.8254 0.776526 0.374305 -0.506856
16.4036 58.9312 10.0212 -0.134383 -0.290182 0.947489
