-0.077231 0.092079 -0.012603 -0.727491 -0.00462552 -0.686102
-0.076185 0.093372 -0.013502 -0.575692 0.115791 -0.809427
-0.077216 0.093448 -0.012595 -0.699374 0.0587803 -0.712335
-0.072718 0.080665 -0.014719 -0.5901 -0.417961 -0.690717
-0.021597 0.038721 -0.015323 -0.0128416 -0.997772 0.065472
-0.022325 0.03866 -0.01355 0.00421059 -0.999941 -0.00996494
-0.022637 0.038678 -0.015494 -0.00208965 -0.997284 0.0736268
-0.077047 0.094796 -0.012538 -0.647252 0.193382 -0.737339
0.056564 0.069533 0.004358 0.523083 0.670702 -0.525874
-0.033292 0.124337 -0.003458 0.380972 0.846489 -0.371908
-0.033117 0.123673 -0.004775 0.38156 0.824959 -0.416959
-0.028895 0.122588 -0.005665 0.00117543 0.92899 -0.370103
-0.027829 0.122593 -0.005682 0.0211531 0.929863 -0.367297
-0.028718 0.121983 -0.007007 -0.016876 0.890593 -0.454488
0.003611 0.092923 -0.032445 0.145384 0.367763 -0.918484
-0.028486 0.120462 -0.009414 -0.0310925 0.803553 -0.594421
-0.027505 0.107176 -0.021508 -0.208321 0.557496 -0.803617
-0.028643 0.107004 -0.021319 -0.209939 0.589023 -0.78037
-0.029288 0.113893 -0.016557 0.185121 0.597095 -0.780518
-0.029343 0.112771 -0.017378 0.143324 0.463661 -0.874343
-0.030273 0.114038 -0.016709 0.111432 0.622453 -0.774684
-0.082122 0.075868 0.018862 -0.716983 -0.672578 0.183232
-0.081427 0.075248 0.019537 -0.753241 -0.634619 0.17288
-0.073679 0.145791 -0.012854 -0.811459 -0.540404 -0.222479
-0.074747 0.147201 -0.012858 -0.777749 -0.602557 -0.178974
-0.07591 0.148612 -0.01286 -0.887942 -0.437841 -0.140905
-0.076223 0.149992 -0.012876 -0.987858 0.155311 -0.00391069
-0.075449 0.151352 -0.012899 -0.990005 0.140754 -0.00880618
-0.075948 0.152671 -0.012907 -0.818798 -0.520152 -0.242924
-0.076994 0.154149 -0.012901 -0.919054 -0.388035 -0.0690502
-0.051511 0.13416 -0.001801 0.709804 0.384745 -0.590042
-0.031099 0.177108 -0.014168 -0.615754 0.525007 -0.58755
-0.063359 0.155022 0.005835 -0.0477059 0.987034 -0.15326
-0.029229 0.179986 -0.013023 -0.629861 0.693776 -0.349213
-0.030871 0.178515 -0.013001 -0.609585 0.633247 -0.476869
-0.046011 0.04269 -0.011575 -0.571623 0.487724 -0.659828
-0.003321 0.092835 -0.034437 0.189304 0.494927 -0.848063
-0.003429 0.091591 -0.035135 0.213785 0.385839 -0.897454
0.004348 0.121547 -0.012917 -0.12879 0.716862 -0.685217
-0.006382 0.124385 -0.009859 -0.0699525 0.673207 -0.736138
-0.000213 0.122901 -0.010315 -0.0846496 0.716968 -0.691948
-0.000194 0.121911 -0.011267 -0.0961621 0.699699 -0.707937
-0.067647 0.033831 -0.005833 -0.535009 -0.699569 -0.473676
-0.06675 0.033778 -0.006955 -0.443788 -0.627159 -0.640097
-0.067477 0.033693 -0.005206 -0.157127 -0.982359 -0.1014
0.021693 0.103078 -0.019145 0.315389 0.644824 -0.696227
0.020767 0.103342 -0.019428 0.338929 0.653229 -0.677067
0.020755 0.10431 -0.018463 0.275967 0.670052 -0.68911
0.025089 0.119458 -0.004739 0.539046 0.693542 -0.477943
0.017361 0.089725 -0.02703 0.481652 0.41172 -0.773627
0.016457 0.090029 -0.027354 0.52564 0.458644 -0.716483
-0.000335 0.096529 -0.030224 0.19225 0.831776 -0.520758
-0.000234 0.095725 -0.031368 0.209631 0.771833 -0.600273
-0.001226 0.095852 -0.031517 0.185534 0.785186 -0.590813
0.025229 0.11379 -0.010637 0.628667 0.481226 -0.6109
0.017839 0.104825 -0.01901 0.208638 0.738067 -0.64166
0.01688 0.104029 -0.020161 0.15008 0.7174 -0.680304
0.022347 0.121292 -0.004735 0.429759 0.777817 -0.458594
0.021438 0.121585 -0.005055 0.4353 0.777044 -0.454661
0.013789 0.103175 -0.021246 -0.0972736 0.674878 -0.73149
0.012651 0.103032 -0.021105 -0.0979023 0.670114 -0.735774
-0.026208 0.123609 -0.002737 -0.101725 0.947675 -0.302596
-0.027019 0.123094 -0.004212 -0.0271344 0.944528 -0.327309
0.008458 0.129083 -0.00108 0.186746 0.900791 -0.392048
0.007471 0.129229 -0.001232 0.1344 0.910892 -0.390144
0.001817 0.106617 -0.020927 0.186503 0.380532 -0.905766
0.001676 0.105337 -0.021551 0.150896 0.373837 -0.915137
0.000834 0.106762 -0.021082 0.243163 0.346935 -0.905819
-0.014408 0.183333 -0.027558 -0.512667 0.307529 -0.801623
0.023755 0.088747 -0.023943 0.343154 0.213481 -0.914698
0.024673 0.088453 -0.023651 0.378201 0.201086 -0.90362
0.02341 0.087137 -0.024253 0.387916 0.209962 -0.897462
-0.015629 0.184043 -0.026288 -0.589689 0.335147 -0.734808
-0.00646 0.091865 -0.035455 0.0998049 0.405519 -0.908622
-0.075594 0.080996 -0.011615 -0.678944 -0.428482 -0.596187
-0.076622 0.082467 -0.011578 -0.658484 -0.396443 -0.639712
-0.077345 0.083884 -0.011583 -0.697926 -0.267141 -0.664481
-0.077715 0.085278 -0.011592 -0.735792 -0.150047 -0.660375
-0.077931 0.086664 -0.011569 -0.760771 -0.067889 -0.64546
-0.078035 0.088033 -0.011561 -0.803491 0.00833641 -0.595258
-0.077943 0.089382 -0.011585 -0.826302 -0.00120901 -0.563227
-0.078057 0.09076 -0.011587 -0.820159 -0.0433777 -0.570489
-0.078074 0.092132 -0.011606 -0.765519 -0.0474048 -0.641665
-0.078161 0.093506 -0.011575 -0.734924 0.0212764 -0.677815
-0.078107 0.094858 -0.011527 -0.712552 0.175754 -0.67925
-0.077509 0.096189 -0.01153 -0.674391 0.304498 -0.672665
-0.030275 0.116055 -0.014822 0.0492525 0.699846 -0.712594
-0.029249 0.115981 -0.014747 0.0694514 0.694441 -0.71619
-0.030292 0.115032 -0.01575 0.0744268 0.669784 -0.738816
-0.029231 0.114996 -0.015715 0.107616 0.637302 -0.763063
-0.005703 0.12744 -0.005173 -0.0688962 0.911236 -0.406082
-0.005529 0.126815 -0.006495 -0.0301192 0.88301 -0.468387
-0.006588 0.126776 -0.006459 -0.11516 0.882697 -0.455615
-0.014262 0.120334 -0.011443 -0.254852 0.838933 -0.480876
-0.013127 0.120519 -0.011643 -0.241053 0.825533 -0.510282
-0.014126 0.119616 -0.012688 -0.211269 0.810328 -0.546566
-0.029792 0.108873 -0.019272 -0.197611 0.624426 -0.755674
-0.029762 0.107877 -0.020229 -0.234869 0.652586 -0.720394
-0.004233 0.095186 -0.032847 0.0743759 0.689565 -0.720394
-0.004252 0.094125 -0.033765 0.112701 0.601291 -0.791042
-0.005259 0.095242 -0.032913 0.0710831 0.706013 -0.704623
-0.07404 0.145796 -0.011857 -0.796502 -0.545733 -0.260306
-0.075081 0.147222 -0.01185 -0.78963 -0.573603 -0.217861
-0.076039 0.148613 -0.011862 -0.928374 -0.35268 -0.117213
-0.076187 0.149999 -0.011875 -0.973001 0.22841 0.0331308
-0.075402 0.151364 -0.011896 -0.99988 0.0121734 0.00961878
-0.076294 0.152787 -0.01189 -0.836487 -0.536376 -0.112206
-0.077094 0.154164 -0.011897 -0.953085 -0.302009 -0.0204934
0.008212 0.087997 -0.032424 0.406484 0.0627136 -0.911503
-0.033642 0.175583 -0.012956 -0.607026 0.526393 -0.59534
-0.032374 0.176483 -0.013441 -0.600355 0.534034 -0.595299
-0.032265 0.177059 -0.012986 -0.593056 0.583919 -0.554367
0.024893 0.108132 -0.014556 0.274838 0.559826 -0.781702
-0.04723 0.164057 -0.006794 -0.651203 0.273033 -0.708088
-0.047521 0.165506 -0.005862 -0.665328 0.352953 -0.657847
-0.046623 0.165492 -0.00684 -0.68696 0.299305 -0.662196
0.007648 0.128583 -0.002543 0.152245 0.890947 -0.427826
0.000359 0.09071 -0.034207 0.325245 0.264325 -0.907936
0.00119 0.089524 -0.034178 0.335979 0.176462 -0.925192
0.008632 0.128438 -0.002389 0.175584 0.893508 -0.413297
0.011416 0.128646 -0.000627 0.240047 0.888158 -0.391859
0.017867 0.103889 -0.020013 0.194966 0.724445 -0.661187
0.017916 0.102978 -0.02104 0.203614 0.657865 -0.72509
0.011587 0.127977 -0.001929 0.253148 0.860726 -0.441663
-0.001324 0.096668 -0.030375 0.142574 0.852261 -0.503313
-0.002211 0.095986 -0.031663 0.146694 0.79621 -0.586967
0.02255 0.087385 -0.024588 0.453241 0.234321 -0.860038
-0.005433 0.091805 -0.035389 0.104972 0.415519 -0.903507
-0.005835 0.091019 -0.03567 0.0826645 0.283568 -0.955383
-0.07559 0.079639 -0.010614 -0.679207 -0.404302 -0.612551
-0.07665 0.081087 -0.010602 -0.60714 -0.452434 -0.65321
-0.076646 0.080335 -0.010077 -0.590387 -0.441626 -0.675581
-0.077726 0.082534 -0.0106 -0.630326 -0.356888 -0.689435
-0.078328 0.083948 -0.010597 -0.706275 -0.218314 -0.673435
-0.078671 0.085344 -0.010585 -0.752266 -0.109185 -0.649749
-0.078762 0.086722 -0.010563 -0.791544 0.00912823 -0.611043
-0.078636 0.088074 -0.010561 -0.834652 0.0673982 -0.546639
-0.078524 0.089425 -0.010571 -0.836591 0.00049566 -0.547827
-0.078578 0.090789 -0.010621 -0.810317 -0.111628 -0.575261
-0.078952 0.092184 -0.010641 -0.742804 -0.115938 -0.659394
-0.07902 0.093561 -0.010596 -0.734166 0.0270597 -0.678431
-0.078876 0.094918 -0.010577 -0.732441 0.175821 -0.657736
-0.078452 0.096241 -0.010521 -0.695019 0.308241 -0.649566
-0.077768 0.09758 -0.010556 -0.707775 0.269277 -0.653104
0.014212 0.123033 -0.008602 0.279281 0.815076 -0.507596
0.015157 0.122808 -0.008362 0.369794 0.775074 -0.512359
0.014308 0.122234 -0.009731 0.330442 0.765427 -0.552204
-0.030889 0.108768 -0.019152 -0.144339 0.574623 -0.80559
-0.012988 0.119781 -0.012878 -0.213929 0.783472 -0.583444
-0.02973 0.109983 -0.018429 -0.134304 0.494173 -0.858927
0.030358 0.105377 -0.013606 0.501424 0.486024 -0.715789
0.031205 0.104936 -0.013141 0.571639 0.419057 -0.705422
0.030269 0.104198 -0.014346 0.523959 0.398074 -0.752996
-0.093623 0.120076 0.013292 -0.96748 -0.128958 -0.217607
-0.040804 0.088495 -0.022479 -0.273615 -0.433463 -0.858629
0.011723 0.127254 -0.003151 0.274836 0.843016 -0.462373
-0.069456 0.042195 0.003702 -0.821023 0.532885 0.204829
-0.074379 0.145821 -0.010847 -0.797422 -0.549365 -0.249633
-0.075339 0.14722 -0.010857 -0.803886 -0.539634 -0.250125
-0.076178 0.148614 -0.010867 -0.963603 -0.221817 -0.149216
-0.076109 0.149998 -0.010881 -0.9682 0.247977 0.0331086
-0.075388 0.151441 -0.010914 -0.993301 -0.0867246 -0.0763669
-0.076365 0.1528 -0.010886 -0.839328 -0.5317 -0.113243
-0.077087 0.154176 -0.010898 -0.974109 -0.22499 0.0221438
0.034127 0.099311 -0.013146 0.635829 0.149529 -0.757207
0.033876 0.097812 -0.013552 0.633546 0.0720754 -0.770341
0.033068 0.0984 -0.014133 0.57347 0.118396 -0.810626
-0.062903 0.154793 0.003898 -0.0271308 0.959975 -0.278769
-0.037027 0.174099 -0.010922 -0.574619 0.546383 -0.609327
-0.037237 0.172627 -0.011853 -0.571678 0.420831 -0.704334
-0.038136 0.171203 -0.011844 -0.593209 0.340182 -0.729644
-0.038311 0.172675 -0.01092 -0.601602 0.444841 -0.66347
-0.03555 0.175589 -0.010979 -0.58872 0.614413 -0.525267
-0.00492 0.036204 0.048453 0.230703 -0.357932 0.904799
0.011857 0.126524 -0.004369 0.312162 0.810202 -0.496112
0.011957 0.125728 -0.005509 0.305003 0.783653 -0.541166
0.018548 0.111232 -0.015859 0.310983 0.292428 -0.90431
0.018337 0.109817 -0.016338 0.282682 0.315589 -0.905812
-0.012514 0.181139 -0.028962 -0.383774 0.142406 -0.91238
-0.013575 0.18083 -0.028435 -0.522664 0.0138448 -0.852426
-0.031399 0.116965 -0.013755 -0.00918987 0.736143 -0.676763
-0.032418 0.116998 -0.013796 -0.0573627 0.737227 -0.673205
-0.022048 0.121595 -0.008682 -0.111811 0.836872 -0.535857
-0.021954 0.120804 -0.00985 -0.0612822 0.821613 -0.566742
-0.023019 0.120798 -0.009833 -0.0781867 0.836024 -0.543094
0.012048 0.124912 -0.00663 0.269893 0.790503 -0.549785
0.012143 0.124109 -0.007763 0.237274 0.827895 -0.508224
-0.001035 0.117326 -0.01637 -0.234275 0.680837 -0.693957
0.001766 0.095491 -0.031122 0.16664 0.761189 -0.626756
0.001748 0.094442 -0.032038 0.21295 0.572441 -0.79181
0.000746 0.095576 -0.031215 0.191807 0.760419 -0.620461
-0.051542 0.038944 -0.011468 -0.0747626 0.246157 -0.966342
-0.008745 0.09762 -0.029414 -0.053926 0.888467 -0.455761
0.031458 0.111437 -0.008098 0.611705 0.522843 -0.593677
0.030607 0.111866 -0.008563 0.568993 0.569692 -0.593042
0.030582 0.112813 -0.007583 0.541938 0.626766 -0.559882
-0.01355 0.122737 -0.007963 -0.329684 0.704896 -0.628037
-0.013397 0.121962 -0.009161 -0.306656 0.788237 -0.533521
-0.012365 0.109877 -0.020382 -0.254605 0.577586 -0.77561
-0.012301 0.110982 -0.019549 -0.235286 0.580501 -0.779525
-0.011066 0.112343 -0.019 -0.289841 0.635087 -0.716001
-0.012244 0.112093 -0.018725 -0.215716 0.585762 -0.781248
-0.012188 0.113225 -0.01793 -0.162896 0.559194 -0.812876
-0.013072 0.097391 -0.02921 -0.179154 0.915553 -0.360092
-0.013959 0.096724 -0.030514 -0.149309 0.906943 -0.393906
-0.017655 0.10171 -0.023762 0.0714007 0.271396 -0.959816
-0.064275 0.044386 -0.001297 -0.448411 0.832564 -0.325215
-0.063188 0.044956 -0.001153 -0.390114 0.849429 -0.355361
-0.063764 0.044271 -0.002269 -0.378594 0.843249 -0.381574
0.052852 0.059223 -0.003236 0.543938 0.0392745 -0.838206
0.052016 0.059673 -0.003689 0.431808 0.139949 -0.891042
0.026018 0.09914 -0.018963 0.526632 0.409236 -0.745107
0.025082 0.098392 -0.020169 0.497185 0.335503 -0.800153
-0.078843 0.082596 -0.009608 -0.721998 -0.327837 -0.609297
-0.079262 0.084024 -0.00957 -0.78866 -0.178931 -0.588217
-0.079495 0.085407 -0.009568 -0.807604 -0.0867197 -0.583315
-0.079573 0.086784 -0.009541 -0.805555 0.0402683 -0.591151
-0.079336 0.088124 -0.009548 -0.794452 0.0733852 -0.602877
-0.079259 0.089471 -0.009587 -0.776448 -0.0388536 -0.628982
-0.07943 0.090838 -0.009637 -0.714221 -0.176749 -0.677236
-0.079878 0.09224 -0.009612 -0.694486 -0.133749 -0.706966
-0.080076 0.093625 -0.009578 -0.70459 0.0368317 -0.708658
-0.079893 0.094963 -0.009526 -0.712263 0.19062 -0.675533
-0.079399 0.096293 -0.009514 -0.689178 0.310431 -0.654726
-0.078621 0.097635 -0.009568 -0.708744 0.261097 -0.65537
-0.078293 0.098997 -0.009602 -0.720674 0.141395 -0.678702
0.0198 0.113601 -0.014418 0.38973 0.414461 -0.822394
0.018734 0.112585 -0.015332 0.331452 0.360005 -0.872087
0.015252 0.122005 -0.009489 0.385609 0.748494 -0.539502
-0.004441 0.091679 -0.035264 0.155402 0.443199 -0.88285
-0.024982 0.117062 -0.013908 0.0238019 0.654965 -0.755284
-0.025041 0.11597 -0.014757 -0.0223375 0.6048 -0.796064
-0.029154 0.123106 -0.004182 0.0430992 0.951976 -0.303125
-0.030182 0.12316 -0.004241 0.0891443 0.933724 -0.346717
-0.004413 0.12096 -0.012313 0.0797361 0.647792 -0.757633
-0.0044 0.119978 -0.013171 0.0453079 0.65827 -0.751417
-0.029962 0.122606 -0.005656 0.00356173 0.918747 -0.39483
-0.093726 0.121427 0.013285 -0.972475 -0.0308025 -0.230961
-0.09372 0.12277 0.013282 -0.976735 0.0405734 -0.210576
-0.076991 0.154191 -0.008896 -0.99953 -0.0177757 0.0249938
-0.074673 0.145787 -0.00987 -0.778285 -0.551633 -0.299956
-0.07573 0.147214 -0.009868 -0.812345 -0.50308 -0.294969
-0.076428 0.148619 -0.009866 -0.976161 -0.0795865 -0.20193
-0.076069 0.150008 -0.009875 -0.964641 0.263536 0.00410978
-0.075547 0.15139 -0.00989 -0.978768 -0.104945 -0.17607
-0.076597 0.152807 -0.009887 -0.874869 -0.461302 -0.147661
-0.009636 0.038363 0.020413 0.0381243 -0.998527 0.0386018
-0.010265 0.038442 0.022022 0.0381941 -0.998528 0.0385192
-0.010678 0.038317 0.020243 0.0382394 -0.998526 0.0385091
-0.053064 0.072334 0.0404 -0.0969276 -0.632331 0.768611
-0.041205 0.169789 -0.009879 -0.614982 0.367304 -0.697771
-0.039324 0.172677 -0.009927 -0.636557 0.495474 -0.591017
-0.038064 0.174118 -0.009956 -0.597261 0.614831 -0.515036
2.7e-05 0.099158 -0.025003 0.239397 0.888401 -0.391704
0.012283 0.123395 -0.008986 0.230687 0.852434 -0.46919
0.012421 0.122685 -0.01021 0.261537 0.815572 -0.516179
0.012514 0.121868 -0.011343 0.298797 0.753463 -0.585674
0.01927 0.124452 -0.002136 0.444335 0.786855 -0.428282
0.019139 0.125192 -0.000919 0.413503 0.799407 -0.435848
0.030849 0.093125 -0.01857 0.519592 0.369761 -0.770261
-0.03225 0.036793 -0.030548 0.102003 0.138007 -0.985165
0.025228 0.116758 -0.007825 0.617406 0.539117 -0.572855
0.025223 0.117755 -0.006912 0.606105 0.594722 -0.52815
0.000272 0.109746 -0.020249 0.18957 0.286744 -0.939064
9.1e-05 0.108392 -0.020797 0.335635 0.290359 -0.896125
-0.019791 0.0347 -0.027631 0.251779 -0.60366 -0.75644
0.012542 0.120941 -0.012332 0.297666 0.682901 -0.667114
-0.010683 0.090847 -0.036465 0.104658 0.314784 -0.943376
0.012555 0.119968 -0.013287 0.287789 0.653148 -0.70041
0.001652 0.093233 -0.032792 0.279269 0.439817 -0.853563
0.000679 0.093396 -0.032982 0.286015 0.472763 -0.833481
0.00077 0.094603 -0.032215 0.241498 0.607009 -0.757112
0.034635 0.107297 -0.007625 0.719849 0.533651 -0.443885
-0.009336 0.127529 -0.003198 -0.204608 0.914164 -0.349913
-0.009126 0.126983 -0.004607 -0.232586 0.88881 -0.394867
-0.010269 0.126825 -0.004418 -0.216628 0.886565 -0.408748
-0.002347 0.096725 -0.030444 0.130362 0.859973 -0.493409
6.4e-05 0.129314 -0.001197 -0.0498741 0.901661 -0.429558
-0.014784 0.098195 -0.026047 -0.152839 0.931298 -0.330643
-0.013615 0.098298 -0.026172 -0.191599 0.930767 -0.311388
-0.014464 0.09771 -0.027556 -0.178925 0.92797 -0.326892
-0.012424 0.108763 -0.021205 -0.296234 0.509605 -0.807805
0.017961 0.1201 -0.009428 0.403724 0.722445 -0.56132
-0.014209 0.09722 -0.029036 -0.188664 0.921509 -0.339451
-0.077661 0.081758 -0.010212 -0.599528 -0.427024 -0.676917
0.019257 0.090324 -0.025618 0.440768 0.375633 -0.815244
0.019109 0.088976 -0.026251 0.497313 0.295496 -0.815697
-0.078886 0.081283 -0.008558 -0.748815 -0.396229 -0.531299
-0.079532 0.082672 -0.00859 -0.834083 -0.300492 -0.462611
-0.018597 0.036422 -0.02758 0.304448 -0.171026 -0.937049
-0.079895 0.084062 -0.008594 -0.867068 -0.185526 -0.462356
-0.080176 0.085468 -0.008538 -0.871255 -0.096082 -0.481334
-0.080198 0.086823 -0.008561 -0.854014 0.00298943 -0.520241
-0.080101 0.088167 -0.008587 -0.784245 0.00941368 -0.62038
-0.080127 0.089517 -0.008617 -0.721633 -0.122005 -0.68144
-0.080599 0.090913 -0.008616 -0.653971 -0.216598 -0.72485
-0.081033 0.092317 -0.008577 -0.694532 -0.0841282 -0.714527
-0.081024 0.093683 -0.008569 -0.740128 0.092956 -0.66601
-0.080759 0.095024 -0.008549 -0.738552 0.214869 -0.639039
-0.080265 0.096356 -0.008541 -0.715219 0.295258 -0.63347
-0.07957 0.097688 -0.008561 -0.687717 0.263557 -0.676449
-0.079166 0.099056 -0.008633 -0.719892 0.140232 -0.679773
-0.079 0.100402 -0.008591 -0.724218 0.127886 -0.677609
-0.022527 0.123574 -0.004787 -0.193665 0.907564 -0.372589
0.006023 0.111527 -0.020041 0.177946 0.190569 -0.965411
0.007108 0.110158 -0.019992 0.226845 0.0927124 -0.969508
0.014864 0.096111 -0.023767 0.223926 0.529085 -0.81849
0.013901 0.0963 -0.023969 0.289167 0.617589 -0.731414
0.051687 0.066249 -0.000355 0.159893 0.572714 -0.804011
0.050663 0.066317 -0.000433 0.0493118 0.633051 -0.772538
0.015355 0.119233 -0.0125 0.386535 0.621705 -0.681229
0.014411 0.118463 -0.013667 0.385046 0.551023 -0.740346
0.01434 0.11733 -0.014444 0.392574 0.51553 -0.761653
0.011956 0.097636 -0.023379 0.11049 0.598122 -0.793752
0.012166 0.099054 -0.022874 -0.087429 0.231181 -0.968974
0.007482 0.118415 -0.015585 0.108616 0.598379 -0.793817
-0.057874 0.09977 -0.019394 -0.343197 0.320929 -0.882734
-0.058882 0.099739 -0.019036 -0.29777 0.191143 -0.935306
-0.057882 0.101192 -0.019039 -0.207234 0.187377 -0.960179
0.007642 0.03621 -0.012824 -0.555861 -0.587786 0.587814
-0.074091 0.144362 -0.008886 -0.748624 -0.586705 -0.30877
-0.075135 0.145812 -0.008863 -0.779187 -0.549124 -0.302209
-0.07608 0.147225 -0.008863 -0.852202 -0.444931 -0.275296
-0.076558 0.148625 -0.00887 -0.991139 0.0526798 -0.121932
-0.075908 0.150006 -0.008888 -0.965773 0.25852 0.0211977
-0.075783 0.151399 -0.008892 -0.934028 -0.245011 -0.259926
-0.076766 0.152802 -0.00889 -0.919781 -0.35471 -0.167882
-0.087068 0.11107 0.020351 -0.613358 -0.733738 0.292268
-0.042327 0.169779 -0.008877 -0.626007 0.411663 -0.662306
0.033419 0.039939 -0.002264 0.174533 -0.717527 -0.674309
-0.04134 0.171235 -0.008916 -0.652906 0.483245 -0.583256
-0.040108 0.172699 -0.00896 -0.656417 0.570994 -0.493034
-0.038724 0.174145 -0.008983 -0.617558 0.676331 -0.401494
0.023195 0.034455 0.005007 0.046338 -0.995567 -0.0818503
-0.015805 0.09319 -0.034888 -0.12292 0.696069 -0.707375
-0.001157 0.094966 -0.032616 0.202536 0.665737 -0.718174
0.020535 0.093742 -0.023269 0.427103 0.346667 -0.835108
0.019509 0.092819 -0.024267 0.36124 0.410432 -0.837288
-0.013848 0.126055 -0.003514 -0.315305 0.844968 -0.431986
-0.015065 0.12575 -0.003155 -0.301124 0.850163 -0.431911
0.029775 0.092078 -0.019477 0.471304 0.273084 -0.838628
0.03361 0.096248 -0.013893 0.635283 0.19466 -0.747344
0.032818 0.09672 -0.014427 0.61886 0.166518 -0.767648
-0.002414 0.126666 -0.006376 0.189387 0.806348 -0.5603
-0.034543 0.114978 -0.015669 0.0966555 0.696013 -0.711494
-0.007741 0.115628 -0.016509 -0.0800557 0.582686 -0.808745
0.021182 0.090936 -0.024273 0.433967 0.360812 -0.825523
0.021026 0.089593 -0.02488 0.470187 0.296654 -0.831216
0.020148 0.089965 -0.02526 0.474834 0.324514 -0.818061
0.018511 0.12405 -0.003691 0.426507 0.801242 -0.419645
0.0176 0.124344 -0.004011 0.39198 0.816552 -0.423787
0.017424 0.125027 -0.002831 0.378847 0.813647 -0.44097
0.012535 0.118934 -0.01417 0.317863 0.587492 -0.744188
0.012486 0.11785 -0.014999 0.306707 0.534275 -0.787707
0.000568 0.092156 -0.033685 0.3038 0.372143 -0.877049
0.023245 0.12098 -0.004406 0.467316 0.768171 -0.43764
-0.013323 0.097887 -0.027733 -0.199176 0.925124 -0.323225
-0.01467 0.122522 -0.007738 -0.206943 0.727783 -0.653839
-0.015759 0.121529 -0.008641 -0.06897 0.778935 -0.6233
-0.045729 0.034884 0.042622 0.0815256 -0.958397 0.273547
-0.021807 0.110009 -0.020504 -0.0753609 0.629254 -0.773537
-0.021864 0.108885 -0.021316 -0.0758543 0.534298 -0.841886
-0.022903 0.109901 -0.020384 -0.111967 0.630302 -0.768233
-0.078914 0.079915 -0.007577 -0.746994 -0.349661 -0.565453
-0.079446 0.081348 -0.007523 -0.802158 -0.332417 -0.496025
-0.080011 0.082685 -0.007563 -0.835306 -0.274467 -0.476373
-0.080339 0.084111 -0.007568 -0.851454 -0.193313 -0.487499
-0.08066 0.085505 -0.007543 -0.839193 -0.129941 -0.528082
-0.080803 0.086864 -0.007569 -0.794771 -0.0873579 -0.60059
-0.080951 0.088219 -0.007604 -0.71493 -0.100114 -0.691991
-0.081029 0.08956 -0.007695 -0.655951 -0.188292 -0.73094
-0.081789 0.090992 -0.007614 -0.656849 -0.178582 -0.732569
-0.081989 0.092379 -0.007576 -0.746254 0.0148984 -0.665495
-0.081854 0.093733 -0.007561 -0.782309 0.131218 -0.608912
-0.081581 0.095072 -0.007536 -0.772857 0.235037 -0.589449
-0.081018 0.096413 -0.00757 -0.758413 0.257701 -0.598665
-0.080556 0.097753 -0.007586 -0.693661 0.213658 -0.687884
-0.080184 0.099098 -0.007576 -0.673633 0.153477 -0.722955
-0.079955 0.100457 -0.007589 -0.703027 0.137344 -0.697775
-0.079699 0.101798 -0.007576 -0.71391 0.204618 -0.669675
0.051758 0.068422 0.001435 0.0448773 0.68628 -0.725951
0.051741 0.067376 0.0005 0.0985799 0.628651 -0.771414
0.050697 0.068411 0.00144 -0.0303364 0.699193 -0.714289
-0.024913 0.038372 -0.004524 0.0109929 -0.999307 -0.0355706
0.05068 0.067384 0.000484 -0.00913677 0.66036 -0.750894
0.05064 0.06522 -0.001337 0.114072 0.592462 -0.797481
0.015185 0.115917 -0.014918 0.400826 0.448191 -0.79904
0.014278 0.11622 -0.015243 0.411836 0.460884 -0.786115
-0.028382 0.123518 -0.002616 -0.0118023 0.963187 -0.268574
0.032458 0.091098 -0.018435 0.553164 0.292233 -0.780134
0.033251 0.090618 -0.017898 0.628248 0.276249 -0.727317
0.032243 0.089662 -0.018928 0.464801 0.205554 -0.861224
0.051332 0.061386 -0.003487 0.285621 0.378561 -0.880405
0.051112 0.059915 -0.004004 0.312669 0.194482 -0.929739
-0.011061 0.128229 0.000136 -0.210806 0.937818 -0.275788
-0.009926 0.128404 -5.8e-05 -0.21883 0.938093 -0.268504
-0.02429 0.121354 -0.008394 -0.181696 0.868958 -0.460324
-0.025256 0.120536 -0.009536 -0.161234 0.844557 -0.510615
-0.024118 0.120704 -0.009726 -0.171432 0.841205 -0.51282
-0.025164 0.119759 -0.010713 -0.169699 0.814586 -0.554663
-0.020767 0.117009 -0.013878 -0.10797 0.754585 -0.647259
-0.023911 0.123885 -0.003099 -0.195171 0.918686 -0.3434
-0.02481 0.123255 -0.00441 -0.1601 0.918189 -0.362348
-0.019664 0.111086 -0.019646 -0.045446 0.533062 -0.844855
-0.020727 0.111071 -0.019623 -0.0475205 0.608317 -0.79227
0.031952 0.103353 -0.013436 0.544371 0.35839 -0.75843
0.031828 0.102039 -0.014066 0.556566 0.284056 -0.780734
0.030982 0.102484 -0.014533 0.582114 0.298812 -0.756211
-0.010188 0.087645 -0.037191 0.246064 0.394071 -0.885528
0.037653 0.101954 -0.007915 0.798427 0.378395 -0.468329
-0.013019 0.115677 -0.016537 -0.0287646 0.482916 -0.875194
0.000828 0.123861 -0.009363 -0.0968326 0.73589 -0.670141
-0.032495 0.112838 -0.017445 -0.0422291 0.437829 -0.898066
0.012391 0.116671 -0.015728 0.205329 0.40934 -0.888977
0.012203 0.115305 -0.016246 0.145576 0.375853 -0.915173
0.012072 0.11405 -0.016899 0.236967 0.558514 -0.794927
-0.022467 0.038474 -0.007826 0.00861024 -0.999438 -0.0323865
-0.073453 0.143001 -0.00787 -0.653256 -0.485702 -0.580818
-0.074458 0.144386 -0.007895 -0.767431 -0.521887 -0.372402
-0.075498 0.145823 -0.007868 -0.804243 -0.526759 -0.275169
-0.076433 0.147234 -0.007862 -0.892456 -0.378109 -0.246083
-0.076683 0.148629 -0.007867 -0.967773 0.115675 -0.223683
-0.076024 0.150016 -0.007891 -0.948219 0.151555 -0.279128
-0.076347 0.151411 -0.007888 -0.863022 -0.323863 -0.387693
-0.076928 0.152806 -0.00789 -0.981894 -0.155038 -0.108845
-0.047213 0.168412 -0.001987 -0.633119 0.773632 0.0255647
-0.043213 0.168352 -0.008853 -0.651464 0.344167 -0.676124
-0.043284 0.169832 -0.007944 -0.663509 0.450165 -0.597585
-0.044116 0.168361 -0.007888 -0.673076 0.377884 -0.635745
-0.042121 0.171253 -0.007939 -0.639514 0.561184 -0.525447
-0.040895 0.172668 -0.007805 -0.651045 0.656418 -0.381125
-0.028749 0.03491 0.049661 -0.0382772 -0.997524 0.0589889
-0.029263 0.035139 0.051062 -0.252354 -0.914611 0.315918
-0.029781 0.034872 0.049468 -0.0521023 -0.991868 0.11612
0.013148 0.100265 -0.022777 -0.0585699 0.1808 -0.981774
0.032264 0.11194 -0.006631 0.671711 0.566204 -0.477721
0.032285 0.110983 -0.007605 0.671448 0.493692 -0.552654
0.031447 0.112439 -0.00718 0.604845 0.598981 -0.524771
-0.002313 0.123919 -0.009403 0.135305 0.675129 -0.725185
-0.003301 0.124033 -0.009526 0.210141 0.63651 -0.742088
0.000515 0.09714 -0.02885 0.19575 0.84796 -0.492592
0.00065 0.096393 -0.030071 0.214524 0.825528 -0.521998
0.00163 0.096227 -0.029904 0.195229 0.837425 -0.510495
0.009547 0.038944 0.045109 0.158952 -0.0247376 0.986976
-0.053816 0.055928 -0.006429 -0.750179 -0.213751 -0.625733
-0.053343 0.057266 -0.007448 -0.66878 -0.257025 -0.697619
-0.055269 0.058846 -0.005427 -0.851726 -0.227974 -0.471795
-0.05584 0.058913 -0.004405 -0.896078 -0.235638 -0.37619
-0.054609 0.060181 -0.007133 -0.798563 -0.187338 -0.572016
-0.018056 0.090922 -0.036602 -0.130532 0.50943 -0.850554
-0.019199 0.090734 -0.036422 -0.189238 0.502758 -0.843459
-0.026267 0.110544 -0.019046 -0.256363 0.704464 -0.661822
-0.025132 0.110719 -0.019235 -0.180037 0.6991 -0.691987
0.001041 0.108173 -0.020565 0.239577 0.283854 -0.928456
0.012061 0.11304 -0.017816 0.268836 0.5674 -0.778321
-0.003232 0.094034 -0.03366 0.14249 0.563534 -0.813711
0.011963 0.111848 -0.018535 0.306929 0.329956 -0.892706
-0.019348 0.097355 -0.025196 -0.238637 0.750428 -0.616369
0.023432 0.100371 -0.020236 0.460888 0.389255 -0.797535
0.02237 0.099344 -0.021148 0.430668 0.287067 -0.855639
-0.074669 0.073013 -0.007718 -0.520465 -0.542288 -0.659576
-0.073668 0.073094 -0.008324 -0.379555 -0.601866 -0.702634
-0.075659 0.074459 -0.007952 -0.61823 -0.449216 -0.644978
-0.077942 0.075766 -0.006567 -0.680101 -0.385884 -0.623342
-0.079049 0.078561 -0.006588 -0.720737 -0.301842 -0.624042
-0.055429 0.0433 -0.008078 -0.321755 0.534207 -0.781726
-0.07961 0.079986 -0.006551 -0.760234 -0.289148 -0.581755
-0.080214 0.081386 -0.006553 -0.742638 -0.307354 -0.594998
-0.080704 0.082774 -0.006567 -0.758814 -0.242776 -0.604368
-0.081131 0.084183 -0.006535 -0.730633 -0.195818 -0.654087
-0.081405 0.08555 -0.006567 -0.734253 -0.143729 -0.663486
-0.081671 0.086914 -0.0066 -0.722907 -0.159576 -0.672266
-0.082051 0.088282 -0.006628 -0.681576 -0.198484 -0.704314
-0.082525 0.089674 -0.006605 -0.66051 -0.212378 -0.720154
-0.082862 0.091053 -0.00661 -0.723638 -0.0739294 -0.686208
-0.082825 0.092435 -0.00657 -0.768601 0.103728 -0.631263
-0.08258 0.093781 -0.006569 -0.790757 0.159712 -0.590928
-0.082278 0.095114 -0.006524 -0.777757 0.241435 -0.580348
-0.081728 0.096455 -0.006564 -0.770753 0.197953 -0.605602
-0.081438 0.097819 -0.006626 -0.718658 0.105978 -0.68724
-0.081382 0.099165 -0.006578 -0.663165 0.127955 -0.737455
-0.081022 0.100509 -0.006579 -0.663125 0.192012 -0.723462
-0.080562 0.101855 -0.006599 -0.699536 0.241256 -0.67264
-0.08008 0.103192 -0.0066 -0.712571 0.281828 -0.642507
-0.079479 0.104524 -0.0066 -0.67744 0.31839 -0.663101
-0.078858 0.105851 -0.00658 -0.667399 0.332572 -0.666315
-0.027718 0.038223 0.00237 0.0178457 -0.999331 -0.0319167
0.050313 0.051687 -0.002998 0.587172 -0.39456 -0.70679
-0.076403 0.109871 -0.006645 -0.695008 0.400048 -0.597432
-0.024022 0.119915 -0.010898 -0.142535 0.797546 -0.586177
-0.023963 0.11903 -0.011973 -0.0732353 0.740891 -0.66762
-0.025019 0.118984 -0.011928 -0.118428 0.781935 -0.612007
-0.074904 0.113464 -0.006171 -0.541093 0.204391 -0.815747
-0.07495 0.112554 -0.006623 -0.579856 0.398123 -0.71082
0.022658 0.102902 -0.018954 0.323872 0.58939 -0.740086
0.021703 0.104101 -0.01824 0.267367 0.629538 -0.729518
0.016462 0.11028 -0.016858 0.40162 0.272205 -0.874417
0.0154 0.109294 -0.017766 0.387088 0.283164 -0.877486
-0.020952 0.121676 -0.008788 -0.0814601 0.817152 -0.570637
-0.02068 0.112216 -0.018843 -0.176379 0.522953 -0.833913
-0.020533 0.113457 -0.018149 -0.233624 0.562805 -0.792887
-0.019375 0.114664 -0.017434 -0.154018 0.705024 -0.692257
-0.019394 0.113623 -0.018333 -0.166852 0.572608 -0.802671
-0.020515 0.114503 -0.017255 -0.228549 0.691698 -0.685069
-0.020574 0.115387 -0.016184 -0.218752 0.76591 -0.60459
-0.019434 0.115555 -0.016369 -0.162069 0.765454 -0.622747
-0.019727 0.118003 -0.012922 -0.124692 0.767702 -0.628558
0.0171 0.120495 -0.009876 0.52531 0.693856 -0.492559
-0.019629 0.117165 -0.014058 -0.241241 0.785967 -0.569262
-0.019536 0.116371 -0.015221 -0.225247 0.784628 -0.577601
-0.02067 0.116197 -0.015031 -0.204185 0.791836 -0.575591
0.031286 0.107094 -0.01144 0.489846 0.586486 -0.645047
0.031269 0.106096 -0.012371 0.526192 0.521676 -0.671548
0.030403 0.107421 -0.011789 0.497637 0.559515 -0.662798
-0.016241 0.125507 -0.002877 -0.241591 0.881827 -0.404988
-0.017947 0.100123 -0.024093 0.0190377 0.191871 -0.981235
-0.018238 0.098522 -0.024406 -0.00505384 0.487309 -0.873215
-0.019009 0.100114 -0.02409 -0.0043184 0.178337 -0.98396
-0.01459 0.101524 -0.023587 -0.143195 0.0716951 -0.987094
-0.014136 0.103403 -0.023522 -0.200497 0.294512 -0.934379
-0.032996 0.122915 -0.005954 0.378957 0.793521 -0.476147
0.016222 0.120841 -0.010234 0.45242 0.701994 -0.550019
0.01615 0.121694 -0.00916 0.476105 0.717423 -0.508555
-0.024232 0.124794 -0.000701 -0.178187 0.945468 -0.272653
-0.02536 0.124214 -0.001355 -0.200502 0.908194 -0.367399
0.023193 0.110938 -0.013566 0.484743 0.341419 -0.805269
0.023064 0.109683 -0.014221 0.420046 0.418615 -0.805185
0.02217 0.109999 -0.014573 0.480385 0.327876 -0.813467
-0.010549 0.092169 -0.035821 0.134768 0.510516 -0.849241
0.029103 0.093874 -0.01936 0.492287 0.311574 -0.812758
0.022328 0.111319 -0.013978 0.530956 0.307586 -0.789605
0.054979 0.06227 -0.000302 0.732103 0.2672 -0.626602
0.054323 0.064171 -0.000209 0.576276 0.299367 -0.760451
-0.026029 0.038194 0.006366 0.0114726 -0.999068 -0.0416099
-0.027072 0.038148 0.006198 0.0730245 -0.996691 -0.0356987
-0.004841 0.099459 -0.02526 0.0228728 0.937783 -0.346466
-0.074388 0.143042 -0.006845 -0.691671 -0.209122 -0.691273
-0.022491 0.034851 -0.02818 0.138884 -0.605813 -0.783391
-0.021592 0.036484 -0.028356 0.238695 -0.171597 -0.955813
-0.020617 0.036492 -0.028109 0.223289 -0.150793 -0.963018
-0.075032 0.144421 -0.006882 -0.774731 -0.373239 -0.510377
-0.07577 0.145819 -0.006885 -0.828116 -0.460271 -0.31996
-0.076687 0.14724 -0.006866 -0.904031 -0.352892 -0.241239
-0.076979 0.148604 -0.006994 -0.94742 0.0265445 -0.318891
-0.076402 0.150045 -0.006923 -0.88685 0.0724121 -0.456348
-0.076771 0.151403 -0.006909 -0.898742 -0.206635 -0.386736
-0.077011 0.152809 -0.006888 -0.990874 0.0334764 -0.13057
-0.076817 0.154199 -0.006899 -0.98847 0.150138 0.0196175
-0.054894 0.161294 0.003058 -0.656359 0.749476 0.0864792
-0.045027 0.168395 -0.006909 -0.664886 0.436608 -0.606053
-0.044048 0.169839 -0.006957 -0.69981 0.514085 -0.495966
-0.042902 0.171269 -0.006965 -0.666328 0.636436 -0.38853
-0.041349 0.172669 -0.006975 -0.627395 0.729294 -0.272958
-0.023595 0.03653 -0.028825 0.216389 -0.134421 -0.967009
-0.002466 0.111608 -0.020245 0.267546 0.587188 -0.763956
-0.001518 0.111398 -0.020029 0.203866 0.525799 -0.825817
-0.002533 0.110473 -0.021026 0.280924 0.463563 -0.840352
-0.053929 0.0476 -0.006435 -0.548128 0.297514 -0.781691
-0.054516 0.049049 -0.005404 -0.698493 0.217231 -0.681849
0.005205 0.129939 3.6e-05 0.0450613 0.935473 -0.350514
0.005422 0.12935 -0.001355 0.0480912 0.912986 -0.405146
0.004358 0.129372 -0.001347 0.00539093 0.907884 -0.419187
-0.02802 0.037873 -0.029543 0.207207 0.093 -0.973867
-0.054101 0.051773 -0.005357 -0.741888 0.0396918 -0.669348
0.030167 0.116977 -0.002044 0.635774 0.688087 -0.349754
0.030284 0.11623 -0.003251 0.620757 0.678162 -0.393392
0.02946 0.116659 -0.003687 0.597887 0.682496 -0.420394
-0.054253 0.0546 -0.005391 -0.824737 -0.121608 -0.552286
-0.054537 0.056003 -0.005418 -0.846446 -0.195224 -0.495395
-0.054898 0.057427 -0.005414 -0.854428 -0.227201 -0.467261
-0.003475 0.114725 -0.017567 -0.120278 0.632231 -0.765387
-0.003493 0.113677 -0.018448 0.0224411 0.692801 -0.720779
-0.03582 0.046598 -0.023877 -0.353553 0.876148 -0.327667
-0.035655 0.045964 -0.025269 -0.347984 0.790131 -0.504579
-0.03693 0.04551 -0.024821 -0.511328 0.726893 -0.458443
0.000709 0.125628 -0.007261 -0.0679706 0.804294 -0.590331
-0.009432 0.095325 -0.033029 0.0788263 0.773796 -0.628511
-0.033557 0.11282 -0.017415 -0.0022662 0.487369 -0.873193
-0.005441 0.119032 -0.014155 0.15141 0.650125 -0.744588
-0.02859 0.110146 -0.018608 -0.191035 0.557628 -0.80781
-0.02956 0.111353 -0.017881 -0.0145398 0.364743 -0.930995
-0.07655 0.072848 -0.005602 -0.611407 -0.627277 -0.482395
-0.077844 0.074366 -0.005582 -0.655881 -0.508078 -0.55828
-0.078795 0.075828 -0.005571 -0.729353 -0.373074 -0.573464
-0.079407 0.077239 -0.005577 -0.756439 -0.312679 -0.574485
-0.080002 0.078647 -0.005566 -0.776615 -0.286252 -0.561185
-0.080466 0.080042 -0.005554 -0.784603 -0.300818 -0.542132
-0.081082 0.081433 -0.005574 -0.760199 -0.329279 -0.560064
-0.081659 0.082844 -0.00557 -0.709873 -0.296135 -0.639049
-0.082231 0.084251 -0.005554 -0.70898 -0.193682 -0.678111
-0.082452 0.08563 -0.005543 -0.720929 -0.115409 -0.683332
-0.082596 0.086986 -0.005567 -0.722217 -0.16003 -0.672899
-0.082997 0.088352 -0.005606 -0.731731 -0.233293 -0.640425
-0.083563 0.089749 -0.005579 -0.757551 -0.205128 -0.619709
-0.083782 0.091132 -0.005566 -0.789058 -0.0206689 -0.61397
-0.083642 0.092486 -0.005552 -0.784213 0.133398 -0.605983
-0.083291 0.093827 -0.005565 -0.778608 0.180755 -0.600914
-0.083018 0.095166 -0.005542 -0.771892 0.210341 -0.59995
-0.082487 0.096508 -0.005596 -0.755587 0.128106 -0.6424
-0.082501 0.097873 -0.005612 -0.733252 0.0317056 -0.679218
-0.082473 0.09923 -0.005591 -0.710705 0.114061 -0.694182
-0.082095 0.100566 -0.005578 -0.697565 0.233638 -0.67736
-0.081603 0.101897 -0.005569 -0.695057 0.289617 -0.658041
-0.080911 0.103235 -0.005598 -0.707044 0.28844 -0.645671
-0.080424 0.104574 -0.005592 -0.69677 0.293446 -0.654524
-0.07982 0.105901 -0.005589 -0.674784 0.329926 -0.660163
-0.079118 0.10724 -0.005608 -0.660779 0.366105 -0.655239
-0.078148 0.107183 -0.006592 -0.646403 0.371506 -0.666443
-0.078366 0.108548 -0.005576 -0.624905 0.45393 -0.63517
-0.077186 0.109877 -0.005596 -0.666439 0.466227 -0.5818
-0.076393 0.111249 -0.005652 -0.785203 0.296431 -0.543678
-0.075803 0.111217 -0.006645 -0.695397 0.341566 -0.632263
0.015901 0.113257 -0.016053 0.358433 0.456692 -0.814222
-0.022186 0.122325 -0.00745 -0.177854 0.854274 -0.488451
-0.02104 0.122456 -0.007618 -0.128039 0.850842 -0.509582
-0.020742 0.110014 -0.020512 0.0121721 0.626428 -0.779385
-0.02085 0.120881 -0.009946 -0.0053826 0.782555 -0.622559
-0.021856 0.120004 -0.011016 0.0211029 0.776351 -0.629947
-0.02083 0.119929 -0.010943 0.10243 0.721498 -0.684799
-0.021718 0.113234 -0.017904 -0.239021 0.583868 -0.775866
-0.021709 0.114301 -0.017023 -0.253418 0.676741 -0.691231
-0.020539 0.097142 -0.024976 -0.227282 0.699424 -0.677605
-0.021509 0.098352 -0.024262 -0.0733846 0.225942 -0.971373
-0.021676 0.096972 -0.024798 -0.173837 0.654443 -0.735857
-0.021449 0.096354 -0.026174 -0.238949 0.910507 -0.337463
-0.017926 0.097131 -0.026963 -0.227217 0.921387 -0.315307
-0.019096 0.096851 -0.026696 -0.262276 0.914384 -0.308404
0.013008 0.095623 -0.025242 0.391722 0.68555 -0.613657
0.013916 0.095324 -0.024923 0.425905 0.610229 -0.668001
0.013046 0.094678 -0.026236 0.523567 0.650308 -0.550433
0.031109 0.103751 -0.013875 0.57449 0.361077 -0.734564
0.030141 0.102934 -0.015004 0.554156 0.329498 -0.764423
-0.009525 0.092088 -0.035728 0.101006 0.506441 -0.856338
-0.010494 0.093302 -0.034968 0.109652 0.61639 -0.779769
-0.01431 0.113201 -0.017895 0.114481 0.560236 -0.820384
0.024797 0.061512 -0.024154 0.594555 0.192458 -0.780682
-0.015884 0.091007 -0.03666 -0.0306375 0.535895 -0.843728
0.029994 0.101654 -0.01563 0.564509 0.232408 -0.792033
0.030822 0.101142 -0.015115 0.588497 0.195242 -0.784571
-0.010985 0.089194 -0.036826 0.222893 0.303226 -0.926484
0.029241 0.095149 -0.018711 0.578013 0.360882 -0.731892
0.024126 0.091478 -0.022848 0.308314 0.339943 -0.888471
0.023948 0.090118 -0.023412 0.348293 0.299729 -0.888175
0.023017 0.090358 -0.023684 0.343564 0.320565 -0.882724
-0.004262 0.129106 -0.000929 -0.100299 0.943708 -0.315207
-0.032193 0.123411 -0.004471 0.292797 0.8606 -0.416698
-0.015827 0.092138 -0.035812 -0.0799716 0.628262 -0.773881
-0.015279 0.114388 -0.017154 0.10991 0.577555 -0.808919
-0.075692 0.143067 -0.005828 -0.59953 0.0400516 -0.79935
-0.07574 0.144451 -0.005876 -0.783639 -0.185732 -0.592801
-0.076233 0.145832 -0.005872 -0.833977 -0.338527 -0.435755
-0.076917 0.147253 -0.005861 -0.90752 -0.307956 -0.285606
-0.077276 0.148645 -0.005869 -0.953519 -0.0791167 -0.290761
-0.077098 0.150031 -0.005897 -0.885502 0.0318893 -0.463541
-0.077226 0.151416 -0.005901 -0.952327 0.00520174 -0.305034
-0.077154 0.152814 -0.00589 -0.987712 0.13893 -0.0715737
-0.028602 0.109083 -0.019496 -0.24888 0.641539 -0.725594
-0.04667 0.166955 -0.005905 -0.709547 0.391923 -0.585611
-0.045936 0.168402 -0.005941 -0.714008 0.486651 -0.503352
-0.012245 0.128019 0.000407 -0.241395 0.928445 -0.282344
-0.022476 0.034801 0.047677 0.00695395 -0.99993 -0.00955528
-0.023509 0.034764 0.047489 -0.0376331 -0.999291 -0.00104882
-0.022832 0.034826 0.045833 0.0309375 -0.999476 -0.00946369
-0.066568 0.040454 -0.005286 -0.565696 0.555148 -0.609753
-0.065987 0.04181 -0.004307 -0.535576 0.679926 -0.500858
0.023358 0.059237 -0.025511 0.525063 0.0629049 -0.848736
-0.057235 0.04652 -0.004344 -0.519069 0.631241 -0.576283
-0.055958 0.047812 -0.004391 -0.672183 0.440668 -0.594963
-0.055111 0.047717 -0.005393 -0.647227 0.362725 -0.670468
-0.055963 0.046431 -0.005413 -0.529404 0.52657 -0.665173
-0.055341 0.049132 -0.004378 -0.762478 0.272396 -0.58688
0.02923 0.08295 -0.020802 0.649355 -0.00478614 -0.76047
0.029682 0.081564 -0.020509 0.549694 0.127459 -0.825585
0.029214 0.081536 -0.0209 0.669836 0.110282 -0.734274
-0.055052 0.050489 -0.004347 -0.816834 0.141876 -0.559154
-0.054835 0.051856 -0.00437 -0.816155 0.0494985 -0.575709
-0.054267 0.05042 -0.005396 -0.729143 0.121731 -0.673447
-0.054861 0.053273 -0.004391 -0.834241 -0.0174695 -0.551123
-0.054857 0.054662 -0.004383 -0.87816 -0.0577087 -0.474874
-0.055027 0.056044 -0.00441 -0.903498 -0.167099 -0.394677
-0.055411 0.057471 -0.004426 -0.906389 -0.239932 -0.347695
-0.056202 0.05895 -0.003406 -0.91901 -0.256183 -0.299652
0.027331 0.094554 -0.020088 0.474002 0.261241 -0.840877
0.028219 0.094191 -0.019714 0.469852 0.302181 -0.829413
0.027159 0.093209 -0.020667 0.482604 0.344596 -0.8052
0.00623 0.129867 0.000105 0.0859763 0.933554 -0.347974
0.006444 0.129282 -0.001291 0.077091 0.916424 -0.392715
-0.053095 0.035063 -0.012244 -0.140765 -0.115504 -0.983282
-0.010699 0.104948 -0.023164 0.0403323 0.363057 -0.930893
-0.069588 0.068744 -0.005726 -0.461722 -0.676565 -0.573649
-0.068618 0.068718 -0.006555 -0.53103 -0.66432 -0.52601
-0.068756 0.068002 -0.005649 -0.506524 -0.645362 -0.571788
-0.02836 0.112635 -0.017234 0.169249 0.526746 -0.833003
-0.069859 0.068077 -0.004673 -0.53573 -0.67855 -0.502557
-0.070814 0.069452 -0.005741 -0.412952 -0.754991 -0.509372
-0.071611 0.070159 -0.006395 -0.317527 -0.763256 -0.562687
-0.075517 0.071451 -0.004534 -0.541069 -0.805133 -0.242909
-0.077361 0.072943 -0.004562 -0.598478 -0.677172 -0.42809
-0.078786 0.074455 -0.004556 -0.701903 -0.498233 -0.509015
-0.079584 0.075924 -0.004517 -0.784311 -0.356567 -0.507658
-0.080097 0.077309 -0.004534 -0.808158 -0.30991 -0.500835
-0.080598 0.078698 -0.004553 -0.85805 -0.269766 -0.437008
-0.081045 0.080094 -0.004532 -0.854896 -0.33745 -0.394057
-0.081717 0.081448 -0.004568 -0.774326 -0.426563 -0.4674
-0.082604 0.082917 -0.004556 -0.729917 -0.364586 -0.578185
-0.083084 0.084307 -0.004564 -0.751737 -0.210911 -0.624827
-0.083412 0.085696 -0.004543 -0.737929 -0.141142 -0.659954
-0.083638 0.087066 -0.004538 -0.761302 -0.122302 -0.636759
-0.083803 0.088416 -0.004571 -0.797967 -0.193753 -0.570709
-0.084275 0.089799 -0.004571 -0.830072 -0.193085 -0.523162
-0.084502 0.091179 -0.004563 -0.859622 -0.0100553 -0.510832
-0.084349 0.092533 -0.004549 -0.833096 0.109108 -0.542261
-0.084111 0.093874 -0.004554 -0.802266 0.184841 -0.567629
-0.083748 0.095211 -0.004554 -0.800467 0.190249 -0.568382
-0.083424 0.096562 -0.00458 -0.78996 0.119879 -0.601326
-0.083339 0.097924 -0.004609 -0.80927 0.0243105 -0.586934
-0.083332 0.099284 -0.004607 -0.786045 0.104448 -0.609282
-0.082938 0.100617 -0.004587 -0.739111 0.26281 -0.620198
-0.082426 0.101938 -0.004563 -0.738338 0.302102 -0.602985
-0.081843 0.103274 -0.004579 -0.728806 0.296083 -0.617395
-0.081362 0.104616 -0.004579 -0.728602 0.288593 -0.621171
-0.080771 0.105947 -0.00459 -0.705825 0.33124 -0.626171
-0.080067 0.107282 -0.004601 -0.679566 0.371468 -0.632615
-0.079324 0.108591 -0.00458 -0.644046 0.456459 -0.613881
-0.078233 0.109897 -0.004566 -0.617816 0.495208 -0.610797
-0.077037 0.111295 -0.004682 -0.733425 0.268417 -0.624532
-0.021695 0.038621 -0.009662 0.0174145 -0.998955 -0.0422472
-0.024225 0.124407 -0.001554 -0.222124 0.90095 -0.372759
-0.025059 0.123734 -0.002916 -0.166834 0.93033 -0.326578
-0.023326 0.122164 -0.007261 -0.193235 0.863706 -0.465481
-0.024468 0.122018 -0.00708 -0.151923 0.868341 -0.472127
0.034581 0.036809 0.016281 0.308006 -0.934813 0.1768
0.035216 0.036726 0.014656 0.301574 -0.929119 0.21399
0.02271 0.105005 -0.017206 0.213554 0.585598 -0.781966
0.022685 0.103953 -0.018076 0.258846 0.616434 -0.743645
0.02172 0.105135 -0.017343 0.210115 0.608939 -0.764882
-0.016783 0.0973 -0.027137 -0.23503 0.919349 -0.31553
-0.017669 0.096634 -0.02844 -0.222597 0.91555 -0.334992
0.024299 0.092831 -0.022273 0.313289 0.356056 -0.880383
0.025237 0.092601 -0.022022 0.362964 0.36335 -0.858041
-0.021766 0.11209 -0.018693 -0.166426 0.597232 -0.784612
0.040881 0.094808 -0.006287 0.78411 0.409441 -0.466401
-0.020274 0.096614 -0.026445 -0.258067 0.911872 -0.319204
-0.018812 0.096449 -0.028264 -0.225465 0.921972 -0.314854
-0.017418 0.096138 -0.02992 -0.230471 0.910937 -0.342165
-0.018554 0.095955 -0.029745 -0.191214 0.921451 -0.338179
-0.027366 0.036013 -0.029615 0.281282 -0.0439393 -0.958619
-0.026999 0.038307 0.000626 0.00805323 -0.999752 -0.0207662
-0.015856 0.09803 -0.025898 -0.236978 0.911663 -0.335726
0.021716 0.119158 -0.00841 0.402364 0.729279 -0.553404
-0.003228 0.099966 -0.023879 0.00831473 0.786227 -0.617882
-0.035558 0.043008 -0.028473 -0.37583 0.516753 -0.769232
-0.003358 0.11894 -0.014066 -0.0346787 0.664052 -0.746882
-0.016193 0.116736 -0.015636 -0.0728607 0.626754 -0.775803
-0.017247 0.116672 -0.015568 -0.113594 0.683407 -0.721146
-0.014601 0.127548 0.000964 -0.262071 0.923517 -0.280064
-0.015531 0.126827 -0.000258 -0.297362 0.896831 -0.32752
-0.009672 0.096871 -0.030636 0.0197987 0.874294 -0.484992
-0.076669 0.144473 -0.004852 -0.681055 0.0546802 -0.730188
-0.07753 0.143071 -0.004734 -0.536113 0.246476 -0.807361
-0.07681 0.145866 -0.004871 -0.824266 -0.201789 -0.529024
-0.077275 0.147261 -0.004863 -0.909551 -0.20766 -0.359991
-0.077556 0.148654 -0.004886 -0.9575 -0.107408 -0.267688
-0.077611 0.15005 -0.004903 -0.959549 0.0303958 -0.279896
-0.077483 0.151439 -0.0049 -0.965825 0.17275 -0.193232
-0.077156 0.15282 -0.004888 -0.972874 0.228734 -0.0345938
0.035327 0.107617 -0.005966 0.791408 0.470574 -0.39017
0.035292 0.108619 -0.005047 0.803197 0.434026 -0.408039
-0.048471 0.165547 -0.004919 -0.699438 0.396071 -0.594907
-0.047565 0.166962 -0.004925 -0.687337 0.481771 -0.543566
-0.046465 0.16842 -0.00496 -0.718056 0.581858 -0.381886
-0.045184 0.16983 -0.004971 -0.692147 0.685803 -0.224959
-0.00868 0.111843 -0.020486 -0.223353 0.602733 -0.766046
-0.090353 0.116014 0.02831 -0.773199 -0.62875 -0.0826843
-0.02315 0.121506 -0.008577 -0.154954 0.863408 -0.48012
0.014906 0.124307 -0.005955 0.261868 0.851965 -0.45341
-0.063462 0.033977 0.015084 -0.187523 -0.974478 0.123398
-0.06512 0.043083 -0.003295 -0.470183 0.766618 -0.437292
-0.057983 0.046633 -0.003364 -0.554209 0.698584 -0.452585
-0.056693 0.047898 -0.003385 -0.698265 0.501397 -0.510908
-0.056051 0.049202 -0.003363 -0.774791 0.310409 -0.550768
-0.0556 0.050558 -0.003388 -0.831798 0.172184 -0.527697
-0.055475 0.051942 -0.003386 -0.871025 0.0472546 -0.48896
-0.055456 0.053337 -0.003382 -0.896813 0.0428774 -0.440326
-0.055348 0.054711 -0.003388 -0.918087 0.00307774 -0.396367
-0.055396 0.056094 -0.003412 -0.936179 -0.116676 -0.331596
-0.055655 0.0575 -0.003421 -0.928601 -0.24349 -0.280022
0.009178 0.101539 -0.021411 -0.242587 0.45266 -0.85805
-0.006428 0.119149 -0.014279 0.0893056 0.623267 -0.776893
-0.069436 0.066827 -0.00357 -0.589649 -0.604892 -0.535182
-0.070996 0.068335 -0.003546 -0.606448 -0.685063 -0.40362
-0.073045 0.069988 -0.003468 -0.527922 -0.80948 -0.256982
-0.075961 0.071546 -0.003493 -0.506291 -0.822989 -0.2576
-0.078196 0.073 -0.003597 -0.646214 -0.693602 -0.318314
-0.079488 0.07456 -0.003536 -0.790381 -0.512945 -0.334942
-0.080206 0.075967 -0.003521 -0.822877 -0.386151 -0.416847
-0.080776 0.077396 -0.003499 -0.859138 -0.269542 -0.435004
-0.081035 0.078768 -0.003516 -0.8884 -0.223662 -0.4009
-0.081408 0.080123 -0.003533 -0.850637 -0.366667 -0.37679
-0.082365 0.081542 -0.003541 -0.756772 -0.510937 -0.407724
-0.083363 0.082947 -0.003573 -0.766538 -0.418014 -0.487528
-0.083914 0.084371 -0.003551 -0.785598 -0.253778 -0.564298
-0.084261 0.085755 -0.003548 -0.815359 -0.129007 -0.564399
-0.084365 0.087116 -0.003541 -0.83794 -0.079651 -0.539919
-0.084499 0.088474 -0.003553 -0.86189 -0.15081 -0.484151
-0.084837 0.089878 -0.003561 -0.905283 -0.151261 -0.396967
-0.084979 0.091212 -0.003561 -0.917231 -0.0328925 -0.396995
-0.084965 0.092576 -0.003558 -0.894792 0.0822227 -0.438847
-0.08472 0.093917 -0.003563 -0.870193 0.167318 -0.463432
-0.084373 0.095258 -0.003571 -0.829537 0.189829 -0.525199
-0.084073 0.096609 -0.00361 -0.833581 0.134003 -0.535897
-0.08395 0.097963 -0.003611 -0.862557 0.0230457 -0.505434
-0.084015 0.099317 -0.003585 -0.877366 0.0744421 -0.474011
-0.083705 0.10067 -0.003619 -0.7992 0.238344 -0.55179
-0.083171 0.101988 -0.003591 -0.742173 0.312898 -0.592683
-0.082597 0.103328 -0.003607 -0.750567 0.300719 -0.588402
-0.082099 0.104661 -0.003599 -0.755414 0.301799 -0.581608
-0.081518 0.106 -0.003617 -0.746847 0.323098 -0.581229
-0.080917 0.107332 -0.003614 -0.710526 0.366907 -0.600442
-0.080181 0.108648 -0.003604 -0.66421 0.453056 -0.594615
-0.079094 0.10996 -0.003593 -0.631857 0.495458 -0.596052
-0.078867 0.111379 -0.002718 -0.704336 0.212155 -0.677423
-0.02394 0.118058 -0.012954 -0.0114216 0.684307 -0.729105
-0.025002 0.118057 -0.012944 -0.0222787 0.717471 -0.696232
0.031379 0.113275 -0.006062 0.620711 0.643758 -0.447541
0.030535 0.113708 -0.006538 0.555131 0.662671 -0.50269
0.001977 0.098757 -0.024624 0.172489 0.891189 -0.41956
0.01399 0.106595 -0.01887 0.309239 0.277542 -0.909583
0.013766 0.105146 -0.019383 0.158119 0.447863 -0.88001
0.013046 0.106823 -0.019116 0.275443 0.221325 -0.935493
0.025104 0.111527 -0.012202 0.44566 0.465389 -0.764723
-0.019717 0.103079 -0.023304 0.0300267 0.34638 -0.937614
-0.018467 0.10319 -0.023285 0.0344481 0.340146 -0.939742
-0.018678 0.101771 -0.023811 0.021408 0.265156 -0.963968
-0.017033 0.094921 -0.032651 -0.115737 0.829191 -0.546852
-0.056812 0.135044 -0.004893 0.561119 0.17877 -0.8082
-0.057005 0.133804 -0.005458 0.456087 0.303118 -0.836722
-0.058079 0.133988 -0.006 0.47417 0.208636 -0.855356
0.020878 0.117607 -0.01075 0.362824 0.676513 -0.64085
